ply
format ascii 1.0
element vertex 869
property float x
property float y
property float z
property uchar red
property uchar green
property uchar blue
property float weight
end_header
-0.55585426 0.012691869 0.34581223 94 255 162 119.229034
-0.9094568 0.085916996 -0.2292729 178 255 78 140.77493
0.58070856 -0.15718873 0.17295502 0 108 255 59.786
0.22872198 -0.08904514 0.120417476 0 140 255 67.92492
0.66097134 0.086724944 -0.12955575 255 64 0 207.71042
0.22853062 -0.08111453 0.081572436 0 172 255 75.38444
-0.056524348 0.10815668 -0.30626133 252 0 0 224.10301
0.76710945 0.07622168 -0.18538885 255 108 0 196.01257
-0.61107075 -0.1575289 0.15420225 0 184 255 78.034355
0.61185694 0.083004154 -0.29686368 255 48 0 211.86931
-0.8494564 0.10322398 0.15196978 255 220 0 168.20563
0.45226696 0.05619321 -0.3237384 255 204 0 172.21469
0.9653744 -0.08039164 -0.0072374735 66 255 190 112.23299
0.52168626 -0.029257368 0.22982994 18 255 238 100.00637
-0.5647416 -0.20517626 -0.291931 114 255 142 124.43833
0.8833682 0.0015082413 -0.17497064 154 255 102 134.84451
-0.8576846 -0.07297132 -0.3332211 255 236 0 164.2568
0.7301567 -0.15616816 0.14797258 0 144 255 68.70179
0.47958818 -0.15812424 0.01676693 0 40 255 42.360832
0.33632717 0.10369174 0.16827746 248 0 0 225.84468
0.36377597 0.11249406 -0.18290123 196 0 0 238.67435
0.5915733 0.031338338 -0.30030805 255 244 0 162.59892
0.7609224 -0.15312774 -0.18609048 0 188 255 79.750565
0.14312257 -0.15812424 0.03966573 0 36 255 41.602493
0.52664024 0.099673286 -0.11420484 255 8 0 221.12372
-0.9114554 0.0898504 0.008581194 206 255 50 147.1734
0.46459872 -0.15812424 -0.19093813 0 88 255 54.406265
-0.86871946 -0.13643736 0.15660481 126 255 130 127.003815
0.7353233 0.081515834 -0.15243329 255 88 0 201.67506
0.11384526 -0.15812424 0.100261435 0 28 255 39.00347
-0.9287836 -0.013948977 -0.22346845 246 255 10 157.68262
-0.8436307 -0.13839342 0.21896525 50 255 206 108.58686
-0.029437002 -0.049030703 0.09894321 0 240 255 92.68784
-0.29433593 0.04156519 -0.06362337 234 255 22 154.44368
0.79796016 0.023811715 0.25727874 198 255 58 145.96272
-0.13557516 -0.07282249 0.16555597 0 180 255 77.539986
-0.6949267 -0.1074152 -0.32779938 162 255 94 136.09021
0.8983789 -0.13161096 0.050636742 0 228 255 89.13716
0.6967335 -0.17874804 -0.26592797 0 144 255 68.48529
0.5880651 -0.21412744 -0.26033616 0 80 255 52.689537
0.26429272 -0.008739874 0.1418067 70 255 186 113.32479
-0.5737565 0.24961045 -0.12940693 86 255 170 373.2965
-0.380233 -0.12782638 0.27660558 0 8 255 34.709137
-0.34993514 0.26802304 -0.1962748 255 192 0 431.1482
-0.88064724 -0.13490652 -0.26033616 255 184 0 177.00822
-0.85934305 0.10086393 -0.21209347 255 252 0 160.39198
-0.05750238 0.18108416 0.26763314 0 36 255 297.82513
0.40525743 0.10960247 -0.17850007 212 0 0 234.38005
-0.6747069 -0.15219223 -0.23628923 154 255 102 134.23187
-0.43536445 0.10879453 0.21669024 248 0 0 225.21213
0.7046853 -0.058832325 0.27849787 0 244 255 93.85592
0.6072644 0.09427282 0.16795853 248 0 0 225.79936
0.28383216 -0.15812424 0.0563136 0 20 255 37.704517
-0.58474886 -0.11449533 0.24722196 0 100 255 57.84242
0.78352344 0.07209693 0.24090727 255 108 0 196.94292
-0.5824739 -0.16832983 0.22377038 0 124 255 63.594727
-0.40965915 0.096675396 -0.3197412 255 108 0 196.0779
-0.7304974 -0.006805063 -0.34004608 110 255 146 123.953674
-0.29433593 0.04156519 -0.06362337 234 255 22 154.44368
-0.71268016 -0.14908803 -0.24996048 190 255 66 143.23918
-0.72280073 -0.14832261 0.15866719 2 255 254 96.46291
-0.574607 0.09480436 0.32059592 255 52 0 210.73903
-0.7304974 -0.006805063 -0.34004608 110 255 146 123.953674
0.10476653 -0.12353152 0.10589577 0 88 255 54.91001
-0.57558507 -0.052772757 -0.327119 10 255 246 98.789474
0.37242946 0.1124728 0.05384725 192 0 0 239.32532
0.13710551 -0.15812424 0.057227854 0 32 255 40.542076
0.11384526 -0.15812424 0.100261435 0 28 255 39.00347
0.3059868 0.13760407 -0.28585014 0 0 144 260.06815
0.9298887 -0.018392665 0.14482586 94 255 162 119.75959
-0.7577974 0.15844049 -0.12285834 224 0 0 231.48839
-0.86633813 0.10014104 0.20144564 255 236 0 164.5402
0.4011327 -0.1306967 -0.31251225 0 168 255 74.62572
0.40221703 0.09046699 0.13568334 255 24 0 217.25815
-0.40432245 -0.17978986 -0.3013924 0 208 255 84.34599
-0.56155235 -0.00093684846 -0.20178157 30 255 226 103.27407
0.53916335 -0.0071027265 0.22400425 110 255 146 123.24258
-0.35342205 -0.08377224 0.07802174 0 84 255 53.570362
-0.37011245 -0.054282334 -0.2534899 0 180 255 77.5412
0.95529634 -0.09523227 -0.052694883 54 255 202 109.332664
-0.023632575 0.14968069 -0.07848527 0 0 184 270.29282
0.13587235 -0.144453 -0.30819613 0 68 255 49.445698
-0.44733477 0.13016249 0.16719311 172 0 0 244.04512
-0.14939524 -0.111625 0.20042507 0 104 255 58.011494
-0.012406422 0.28411812 -0.073382474 255 88 0 457.39194
-0.90254676 -0.13373712 -0.1375076 255 216 0 169.39594
-0.7385769 -0.14702564 0.16247304 10 255 246 98.79021
-0.30807096 -0.04511856 0.29287076 0 220 255 87.06995
-0.6576338 -0.15370181 0.10466259 0 248 255 94.39593
-0.08746005 0.13790174 -0.29305783 0 0 128 256.64093
0.22948739 -0.15812424 0.059013832 0 24 255 38.10111
0.7720847 -0.15512635 0.015236092 0 140 255 67.983444
0.09341282 0.2728069 -0.13674219 255 140 0 444.73456
-0.21643323 -0.04971108 -0.06362337 0 228 255 89.1134
-0.9445172 -0.026918586 -0.2193437 255 240 0 163.44041
0.024907775 0.28271484 0.10072919 255 120 0 449.73282
0.47958818 -0.15812424 0.01676693 0 40 255 42.360832
0.6445148 -0.1579754 -0.080824055 0 124 255 63.02806
-0.7819294 0.15002087 -0.05703226 255 20 0 218.70386
0.12139315 -0.15812424 0.07547035 0 32 255 40.11425
0.7777403 -0.15144807 -0.12430413 0 180 255 77.59925
-0.8695061 -0.09754979 -0.32609844 255 208 0 171.6402
0.4229259 0.09537843 -0.30313587 255 36 0 214.68681
0.7055145 0.08387588 -0.21577175 255 80 0 203.47726
0.21300961 0.20729975 -0.2129652 2 255 254 352.9022
0.54479766 0.09844011 0.05654748 224 0 0 231.55304
0.13899781 -0.11608995 -0.04015051 0 128 255 64.118256
0.58708704 -0.15812424 0.054655194 0 108 255 59.983097
-0.51854 -0.23115802 0.2983137 0 20 255 37.347797
0.83837855 -0.14094482 -0.117330305 0 220 255 87.49605
0.58993614 0.09393264 0.06377644 236 0 0 228.45766
0.30851695 -0.15812424 0.07421591 0 12 255 35.313946
0.66773254 -0.15801793 -0.06336823 0 128 255 64.03323
0.69020605 -0.18789054 0.30143917 0 128 255 64.67046
-0.5127143 -0.08147598 -0.26346162 0 216 255 86.227844
0.2303166 -0.002829135 0.09420186 98 255 158 120.565125
0.26023173 0.076157905 0.04997763 255 120 0 193.56676
0.8854306 -0.13320558 -0.11286536 0 252 255 95.40763
0.7777403 -0.15144807 -0.12430413 0 180 255 77.59925
-0.35680264 0.051154196 0.109765396 250 255 6 158.31975
0.16476691 -0.15812424 0.08425141 0 24 255 38.410778
0.93994546 -0.019817194 0.014874643 114 255 142 124.85111
-0.38514444 -0.036571376 0.20520894 0 212 255 85.19265
0.5880651 -0.21412744 -0.26033616 0 80 255 52.689537
0.61455715 -0.18108681 0.29508197 0 128 255 64.56636
0.43053755 0.1065408 -0.07682686 220 0 0 232.56804
-0.43464157 -0.21744424 0.22377038 0 28 255 39.041317
0.8503276 -0.12544507 0.29425272 0 208 255 84.56693
-0.4425509 -0.016712995 -0.25385135 26 255 230 102.36917
0.67060286 0.08704387 0.25683224 255 32 0 215.27638
-0.71984535 -0.14851397 0.2680584 0 180 255 77.83987
-0.64717305 -0.15453102 -0.12849268 90 255 166 118.44114
0.87041986 0.028957034 0.22147411 202 255 54 146.67535
0.22853062 -0.08111453 0.081572436 0 172 255 75.38444
-0.5897028 0.0025075395 -0.3450426 6 255 250 97.190994
0.24139391 0.097015575 0.21171501 255 52 0 210.77328
-0.20527086 -0.049774863 0.037199378 0 220 255 87.157104
-0.39875188 -0.050795425 -0.24942894 0 176 255 76.96629
0.4790141 -0.0937227 0.22328135 0 120 255 62.325085
-0.5243232 0.028106567 -0.3439157 134 255 122 129.21863
0.07842335 -0.11489929 -0.09151866 0 128 255 64.1587
-0.4425509 -0.016712995 -0.25385135 26 255 230 102.36917
0.626166 0.03895001 -0.32305804 255 208 0 171.44978
0.9394139 -0.03338213 0.1986391 74 255 182 114.57945
-0.040875774 0.14766084 0.07070774 0 0 152 262.231
0.38280514 0.107773975 0.2301276 240 0 0 227.95515
0.95227724 -0.078095384 -0.17794727 98 255 158 120.21975
-0.69898766 -0.039909452 -0.3435968 110 255 146 123.53662
-0.6069247 -0.10750024 -0.2741562 70 255 186 113.16108
-0.9588476 -0.035572078 -0.18794024 255 232 0 165.27824
-0.6351389 0.24395485 -0.029540947 70 255 186 369.65976
-0.81803167 0.100289874 0.29646394 255 144 0 187.71658
-0.11860838 0.15846175 0.2827502 0 0 176 268.3026
-0.62773985 0.034527585 0.34104964 162 255 94 136.28708
-0.059586026 0.096802965 -0.18643066 255 40 0 213.67201
0.413592 0.09014807 0.16342981 255 28 0 216.09502
-0.22102574 -0.11626005 -0.102000654 0 56 255 46.66367
0.85423976 -0.1375217 0.17907837 0 192 255 80.25129
0.08690675 0.02608671 0.25832057 170 255 86 138.20642
-0.11242123 0.23870322 0.2328491 110 255 146 379.9617
0.23699276 -0.15812424 0.15615831 0 0 244 29.824032
-0.92259645 -0.012311832 0.25853318 66 255 190 112.01578
-0.21643323 -0.04971108 -0.06362337 0 228 255 89.1134
-0.46581116 -0.015947573 0.31425998 10 255 246 98.064125
-0.664884 0.18752642 -0.244071 0 0 192 272.34515
0.62380594 -0.08810962 -0.28019455 0 184 255 78.93181
0.7760819 -0.1520434 -0.11218499 0 176 255 76.293526
0.11384526 -0.15812424 0.100261435 0 28 255 39.00347
0.3823161 0.09055203 -0.10797518 255 36 0 214.1688
-0.3836561 -0.07018605 -0.31440455 0 104 255 58.55912
-0.38431525 -0.03455152 0.24226801 0 220 255 87.439865
-0.89995277 -0.0051466557 -0.32852226 254 255 1 159.03194
0.8649981 -0.12012967 -0.29431227 54 255 202 109.12309
-0.11646095 -0.057471577 -0.342151 0 180 255 77.12701
0.2544273 0.19364978 -0.1013628 0 172 255 331.97922
-0.43198386 0.16033278 -0.18292248 140 0 0 252.8367
0.21968576 0.19671147 0.24724324 0 180 255 333.2999
-0.84805316 -0.0048489925 0.3346499 0 212 255 85.702805
0.18488044 -0.051794715 0.2170517 0 192 255 80.4561
0.92650807 -0.023920693 -0.21421964 138 255 118 130.8013
0.7590088 0.030041378 -0.3154889 255 236 0 164.43623
-0.4011332 0.27191392 0.07557665 255 196 0 430.64932
0.2896791 0.04590257 -0.18670706 255 192 0 175.83134
0.24069229 0.0005939902 0.18715781 90 255 166 118.79747
-0.61338824 0.09242307 -0.32154846 255 172 0 180.02011
0.3693465 0.09161512 -0.22852872 255 12 0 220.22913
-0.21989888 -0.050710373 0.25170818 0 216 255 86.36112
-0.9008883 0.09265694 0.09732732 222 255 34 151.02827
-0.36945334 -0.06561479 0.1373205 0 124 255 63.882195
-0.21696475 0.23379178 -0.23694836 130 255 126 384.12646
-0.6392425 -0.15523265 -0.061071973 58 255 198 110.434166
-0.38248673 0.15257227 0.17382674 0 0 204 275.7176
-0.58891606 0.250631 -0.0015180898 146 255 110 388.32205
-0.8359765 -0.13903128 -0.24105185 255 228 0 166.72292
-0.036772273 0.0059306645 -0.20616148 142 255 114 131.68892
0.12071277 0.26090038 -0.16797556 255 204 0 428.149
-0.6919926 0.20640677 0.067327134 0 124 255 319.58087
0.6478317 0.08808568 0.08712173 255 8 0 221.18416
-0.6605466 -0.15334037 -0.22142734 134 255 122 129.94559
-0.69607484 0.12014826 -0.28053474 255 104 0 197.07239
-0.41314602 0.05432218 0.09556261 246 255 10 157.15097
-0.42048132 -0.12518993 -0.29033637 0 176 255 76.3002
-0.8301933 0.088425875 -0.31229964 214 255 42 149.77844
0.6490648 -0.2202933 -0.2312077 0 76 255 51.390602
-0.36945334 -0.06561479 0.1373205 0 124 255 63.882195
0.24466822 0.027298624 0.1702548 178 255 78 140.63072
-0.44380534 0.26593938 0.09258597 255 232 0 421.10657
0.6792989 -0.0688253 0.31806582 0 236 255 91.94297
0.7156775 -0.09910189 0.28481257 0 204 255 83.83703
-0.5642951 -0.15982518 0.31098565 0 32 255 40.252052
0.89395654 -0.109583884 -0.29188845 78 255 178 115.245636
-0.049316645 0.28267235 -0.14254661 255 84 0 458.4773
0.42505202 0.10690225 0.088971496 204 0 0 236.5447
-0.7217802 -0.075947955 0.33756274 0 124 255 63.12467
-0.91472965 -0.054558728 0.33294895 54 255 202 109.75324
-0.47926977 -0.016691731 0.30788147 2 255 254 96.4521
-0.0075375033 0.11277046 -0.069002576 252 0 0 224.30217
0.3460225 0.115789615 0.28587565 228 0 0 230.58017
0.76951206 0.07430813 0.2510916 255 96 0 199.24103
0.72056776 -0.0350618 -0.30075455 54 255 202 109.93955
-0.57558507 -0.052772757 -0.327119 10 255 246 98.789474
0.16317229 0.2434233 0.1609422 186 255 70 398.45776
0.43848938 -0.117025465 0.30598918 0 132 255 65.696465
0.09060627 -0.037974644 0.34264427 0 204 255 83.79132
0.64459985 0.08855344 -0.03861967 255 36 0 214.23795
-0.8020641 -0.14190158 -0.137784 218 255 38 150.11598
-0.45043898 0.2611768 0.15709384 238 255 18 411.66617
0.83839977 0.06331586 0.20676105 255 156 0 184.24762
0.7233955 0.080452755 -0.1297046 255 88 0 201.54207
-0.41729206 0.008588372 -0.34697738 110 255 146 123.35106
-0.37676734 0.103564166 0.26941913 255 8 0 221.44333
-0.28685185 -0.055047754 -0.017655684 0 188 255 79.59481
0.28961533 0.06002031 -0.32677883 255 196 0 174.61844
-0.04176876 0.09697306 0.31309056 255 80 0 203.91324
-0.9435392 -0.09472199 0.3063719 82 255 174 116.60683
-0.7531623 -0.14579248 -0.18781267 198 255 58 145.3204
0.2303166 -0.002829135 0.09420186 98 255 158 120.565125
-0.930357 -0.13135582 -0.18498486 255 176 0 179.16655
0.7130836 -0.13922262 0.2504325 0 168 255 74.10622
-0.4540109 -0.016287759 0.32085106 10 255 246 98.743225
0.1952136 -0.06638022 -0.043063354 0 228 255 89.06815
-0.96176046 -0.078860804 -0.24951398 255 168 0 181.22719
0.7766772 -0.15323405 0.05963042 0 148 255 69.95996
0.46778798 0.10379804 -0.11165345 236 0 0 228.28436
0.38580304 0.0911261 0.1813959 255 36 0 214.51488
-0.8184356 -0.14058337 -0.12706815 226 255 30 152.30046
0.15726157 -0.11587733 -0.08424718 0 120 255 62.914433
0.6460882 0.08974409 -0.24519786 255 40 0 213.50212
0.09424202 -0.11672781 -0.15477206 0 104 255 58.986324
-0.46581116 -0.015947573 0.31425998 10 255 246 98.064125
0.2977373 0.16947529 -0.024565719 0 44 255 299.9096
-0.74835724 -0.03659264 -0.34244865 150 255 106 133.43887
0.5162858 -0.15812424 0.017362257 0 64 255 48.065384
-0.6187675 -0.062638156 0.271439 0 88 255 54.02522
0.84977484 -0.13630979 -0.25098103 14 255 242 99.68722
-0.8162457 0.12050971 0.09001332 255 144 0 187.38765
0.823793 -0.14436795 -0.06694019 0 196 255 81.20087
0.09341282 0.2728069 -0.13674219 255 140 0 444.73456
-0.04468161 0.03739791 -0.101745516 226 255 30 152.26012
-0.9716258 -0.04915827 0.16204779 170 255 86 138.15562
0.700114 0.08479013 -0.18317762 255 80 0 203.39513
0.01440452 0.010990937 0.21107717 118 255 138 125.26845
-0.50812185 -0.21523303 0.23165844 0 72 255 50.262783
0.615195 0.008248186 0.32161647 142 255 114 131.6467
0.6489797 0.08817074 -0.014147511 255 32 0 215.56499
0.82098657 -0.02260247 0.3210637 66 255 190 112.097755
0.6302057 0.026256803 -0.27898264 255 248 0 161.88773
-0.7577974 0.15844049 -0.12285834 224 0 0 231.48839
-0.031563167 -0.04511856 0.22689584 0 220 255 87.644875
-0.40094185 0.01462668 -0.16988909 142 255 114 131.29518
-0.65546507 -0.15374433 0.21513814 0 176 255 76.08638
0.34100473 0.10460599 0.15435109 240 0 0 227.5683
-0.57926327 0.12108377 0.29818615 196 0 0 238.255
0.102491535 -0.030107832 0.34219778 0 232 255 90.37534
0.48205453 0.07705089 -0.3143195 255 100 0 198.89862
0.31712788 0.09189152 -0.21000983 255 4 0 222.08325
0.8073153 -0.14851397 0.020849166 0 168 255 74.30147
-0.03479494 -0.15812424 0.0076669436 0 16 255 36.45439
0.7009007 -0.051560838 -0.2964597 18 255 238 100.59442
0.6830409 -0.1571462 -0.111993626 0 132 255 65.65227
-0.92803943 -0.1317598 0.07249372 230 255 26 153.41042
-0.51175755 -0.07826547 -0.28740224 0 220 255 87.013466
0.54381967 -0.16788334 0.29878148 0 136 255 66.385315
0.17233607 0.2378315 -0.16087416 174 255 82 395.28406
0.087991096 -0.022241022 0.25832057 14 255 242 99.33075
0.0831647 -0.053049155 0.22172925 0 200 255 82.419136
0.56495374 0.011075985 0.29031935 166 255 90 137.98328
-0.13130158 -0.15812424 0.08491052 0 0 255 32.309597
-0.4690429 0.050346255 0.3404756 255 220 0 168.17259
-0.81803167 0.100289874 0.29646394 255 144 0 187.71658
-0.58041143 -0.084665224 0.29489058 0 48 255 44.956123
-0.28393897 -0.04256716 -0.06362337 0 228 255 89.93855
-0.5031891 -0.0626169 0.29459295 0 112 255 60.22679
0.5036351 0.10333029 -0.21504885 248 0 0 225.43576
-0.20671664 -0.049859907 -0.19759302 0 232 255 90.395424
-0.26021096 0.071225196 -0.33237064 255 172 0 180.64987
0.17014611 -0.04513982 -0.13206463 2 255 254 96.19378
0.31404498 0.14717181 -0.22829485 0 0 196 273.44778
0.32767367 0.14430149 -0.15655804 0 0 188 271.65158
0.011130226 -0.082751684 -0.03075286 0 184 255 78.28911
0.8891514 0.04152267 -0.20639536 255 224 0 167.54517
-0.4011332 0.27191392 0.07557665 255 196 0 430.64932
0.96205753 -0.08187995 0.07264255 50 255 206 108.048355
-0.8737797 -0.1332481 -0.31117278 255 176 0 179.25972
-0.4264771 0.10056627 -0.13601929 255 100 0 198.3033
-0.940924 -0.04511856 0.32595384 74 255 182 114.908775
-0.7742964 0.1448543 -0.14701156 255 40 0 213.82614
0.89746463 -0.13033526 0.17123283 0 212 255 85.08133
0.7947071 0.07003455 0.13487542 255 128 0 191.6145
-0.81414074 -0.14079599 -0.21081778 254 255 1 159.51201
0.21132994 0.22180021 0.020083748 70 255 186 369.84842
0.6431115 0.0563633 -0.3142132 255 144 0 187.87881
-0.7368122 -0.123085044 -0.31993255 210 255 46 148.03122
0.7742959 0.07411679 0.029226258 255 104 0 197.03366
0.20803438 0.15557016 -0.27998194 0 0 208 276.88638
0.87698966 0.019538121 0.24868903 162 255 94 136.92708
0.38580304 0.0911261 0.1813959 255 36 0 214.51488
-0.32248634 -0.10575679 0.24339487 0 72 255 50.398422
-0.4463142 -0.20785522 0.25802287 0 0 255 32.77585
0.14435573 -0.004445021 0.341241 70 255 186 113.32233
-0.90254676 -0.13373712 -0.1375076 255 216 0 169.39594
0.36739045 -0.15812424 0.13034667 0 20 255 37.526104
-0.93125 0.04360631 -0.101745516 162 255 94 136.85403
-0.92521167 -0.13188736 -0.1334679 255 200 0 173.21707
0.7230128 -0.15808171 0.025547992 0 128 255 64.90567
0.1811384 -0.14273079 -0.3086001 0 88 255 54.1763
0.1708265 0.24631488 0.002564147 206 255 50 403.42563
-0.82453775 -0.1401794 -0.06730164 206 255 50 147.65851
-0.60392684 -0.085303076 -0.30003166 54 255 202 109.56985
-0.021208744 -0.15812424 0.044385817 0 20 255 37.874187
-0.6576338 -0.15370181 0.10466259 0 248 255 94.39593
-0.21915472 -0.057833027 -0.34329915 0 188 255 79.46491
0.10508546 0.22987963 0.23463507 90 255 166 374.53207
0.87224835 0.054874986 0.099985026 255 192 0 175.58208
0.2756677 -0.016883086 -0.18634562 74 255 182 114.565865
-0.36264962 0.27386996 -0.12353871 255 132 0 446.1133
0.022930441 -0.015522341 0.10202615 70 255 186 113.50724
0.004028835 0.104095705 0.25832057 255 52 0 210.18568
-0.28617147 0.27739945 0.166534 255 184 0 433.61252
-0.37732017 0.10505248 -0.07514719 255 76 0 204.49652
0.30122417 0.08851092 0.13130344 255 64 0 207.12384
0.60103476 0.09286956 0.03911293 240 0 0 227.44562
0.5900425 0.095548525 0.23310424 252 0 0 224.92802
-0.5430335 -0.02955503 -0.28036463 0 204 255 83.67127
0.69669086 -0.051454533 0.22823532 0 240 255 92.68893
-0.67815125 0.14192018 -0.2693511 255 16 0 219.89308
0.6660954 -0.12597662 0.295656 0 176 255 76.588196
0.8101856 0.052791346 -0.28901812 255 172 0 180.96782
-0.34187698 0.27754825 -0.09689786 255 120 0 449.4258
0.1118254 -0.116664015 -0.15859915 0 104 255 58.849335
0.87917966 0.0025075395 -0.15851413 154 255 102 134.84386
0.71138275 -0.076883465 -0.28480834 2 255 254 96.51692
0.37644792 0.09072213 -0.15923701 255 24 0 217.39008
-0.3006719 -0.050710373 -0.06362337 0 200 255 82.90441
0.64919233 0.08804317 -0.05097269 255 40 0 213.0636
0.40942472 0.107242435 0.09420186 204 0 0 236.24518
0.8571526 -0.13545932 0.23839839 0 196 255 81.65058
-0.8199452 0.12002069 0.045618992 255 152 0 185.86082
0.8101643 -0.08009397 -0.31436202 66 255 190 112.03518
-0.33243683 -0.09285097 0.26208386 0 100 255 57.172752
0.7781655 0.0733301 0.056207296 255 112 0 195.61758
0.7055145 0.08387588 -0.21577175 255 80 0 203.47726
0.04166196 -0.10292899 -0.10740112 0 148 255 69.07388
-0.66241765 0.2210348 0.10398222 0 248 255 350.17712
-0.51890147 0.25165156 -0.18034984 114 255 142 380.36496
0.12868589 -0.045650102 -0.16059776 0 252 255 95.13804
0.11588638 -0.1164514 -0.056564502 0 124 255 63.75586
-0.06275401 0.14783092 0.08206146 0 0 148 261.56998
0.24560373 0.12508096 0.13578965 172 0 0 244.95592
-0.38569725 -0.03482792 -0.045146998 0 232 255 90.054596
-0.9030145 0.09155133 0.17963119 222 255 34 151.0109
0.07089673 0.27348727 -0.1566856 255 132 0 446.25125
0.34615004 -0.052092377 0.338966 0 180 255 77.23293
0.16476691 -0.15812424 0.08425141 0 24 255 38.410778
0.6765136 -0.04701085 0.32019195 6 255 250 97.69934
-0.6196392 -0.06399891 0.21143861 0 116 255 61.779488
0.723438 -0.039824408 -0.2256584 42 255 214 106.14827
0.22872198 -0.08904514 0.120417476 0 140 255 67.92492
0.41778055 0.1075401 -0.037407752 216 0 0 233.36783
0.88285786 -0.1337584 0.09815653 0 208 255 84.97387
0.24069229 0.0005939902 0.18715781 90 255 166 118.79747
0.57979435 -0.00959034 0.29663405 78 255 178 115.32291
0.56244487 0.09665413 0.0769374 228 0 0 230.03513
0.888875 0.006228328 0.25721496 106 255 150 122.091545
-0.43878758 0.15159424 0.19296224 0 0 200 274.49405
-0.029437002 -0.049030703 0.09894321 0 240 255 92.68784
-0.37848955 -0.051199388 0.090799995 0 168 255 74.030266
-0.23378274 0.08034645 -0.32864985 255 132 0 190.28592
-0.55455726 -0.029151058 0.22300495 0 200 255 82.08644
-0.011981188 0.28348023 0.106172174 255 120 0 449.323
0.6202978 -0.20987509 0.29027683 0 104 255 58.851433
0.7130836 -0.13922262 0.2504325 0 168 255 74.10622
-0.2376311 -0.0518585 -0.20005938 0 220 255 87.63562
0.5484334 -0.0770323 0.27522358 0 184 255 78.42942
0.122690104 0.26778919 -0.044998165 255 180 0 434.43607
0.877011 0.046030138 0.2397804 255 240 0 163.55733
0.6758545 -0.12710348 0.19889423 0 160 255 72.9554
-0.82453775 -0.1401794 -0.06730164 206 255 50 147.65851
0.65259427 -0.15629573 0.1877744 0 132 255 65.89842
-0.45067286 -0.0922769 0.2875553 0 56 255 46.73712
-0.7819294 0.15002087 -0.05703226 255 20 0 218.70386
0.22015353 -0.04545875 -0.11909503 0 252 255 95.71698
0.5702478 -0.0709302 0.29000044 0 204 255 83.4424
-0.37942505 0.11055925 -0.053226423 255 56 0 209.8646
-0.574607 0.09480436 0.32059592 255 52 0 210.73903
-0.08163436 0.2799083 0.17803657 255 152 0 441.19818
0.87990254 0.048900463 -0.20790492 255 200 0 173.50586
0.57090694 0.028042782 0.23518787 254 255 1 159.15971
-0.9602083 -0.1110722 -0.093942486 255 204 0 172.72224
-0.4913251 0.20744859 -0.2373098 0 104 255 314.09927
0.85696125 -0.091532744 -0.30685666 78 255 178 115.47304
0.58092123 -0.13599086 -0.28950712 0 136 255 66.47322
-0.41529346 0.09508077 -0.17552343 255 112 0 195.30644
-0.06815447 0.2844583 -0.031582065 255 96 0 455.33136
0.9375854 -0.091617785 -0.24900371 102 255 154 121.65585
-0.07283203 0.01024678 0.34343094 110 255 146 123.14506
-0.48745552 -0.0050616087 0.32629406 38 255 218 105.338776
-0.5642951 -0.15982518 0.31098565 0 32 255 40.252052
-0.41829136 -0.030745685 -0.25821 0 240 255 92.0534
0.74829286 -0.15510508 -0.2835539 0 204 255 83.15839
0.68197787 0.040799774 -0.31799775 255 196 0 174.30939
0.8506252 -0.13856353 -0.15430431 0 240 255 92.60826
-0.7657067 -0.06918675 0.33792415 0 164 255 73.66933
-0.67428166 -0.15227728 0.16366369 0 216 255 86.46409
-0.5127143 -0.08147598 -0.26346162 0 216 255 86.227844
-0.79723775 -0.142178 0.2157122 18 255 238 100.06489
-0.3974762 -0.19537464 -0.22417009 0 196 255 81.17828
0.71408296 -0.12944227 -0.26120788 0 208 255 84.299545
0.76368636 -0.100313805 -0.31244847 18 255 238 100.74183
0.9199169 -0.074013144 -0.29433355 122 255 134 126.266235
-0.4913251 0.20744859 -0.2373098 0 104 255 314.09927
0.42792234 0.057681527 -0.32386598 255 204 0 172.58731
0.3508276 -0.13588454 -0.31038606 0 160 255 72.04195
0.80316925 0.070502296 -0.15887557 255 128 0 191.31964
-0.6726658 0.06095582 -0.3320092 186 255 70 142.56479
-0.38514444 -0.19010176 -0.25729576 0 188 255 79.56891
0.6319492 -0.027131202 -0.31232092 50 255 206 108.63172
-0.9509808 -0.12363783 0.14824899 202 255 54 146.5214
-0.4815235 0.021664288 -0.22661518 150 255 106 133.8512
-0.38514444 -0.036571376 0.20520894 0 212 255 85.19265
-0.45554176 -0.012333095 0.26648504 18 255 238 100.32998
-0.6647777 0.0532591 0.33501133 230 255 26 153.71455
-0.62387025 0.097334504 -0.3154251 255 160 0 183.68762
-0.3934152 0.099758334 0.19213304 255 36 0 214.87962
0.2081832 -0.04467207 -0.043977607 22 255 234 101.00681
0.2754976 0.16771057 -0.23926587 0 32 255 296.50024
-0.21347785 -0.050306406 -0.2249993 0 232 255 90.40964
0.29233682 0.067865856 0.22185682 255 164 0 182.60428
0.22691473 0.19890141 -0.21626076 0 212 255 341.0794
-0.08510001 0.28124776 0.16134615 255 144 0 443.0536
-0.82328326 0.07841163 0.32114872 255 248 0 161.92572
-0.81945616 0.1075401 0.19319612 255 176 0 179.72543
-0.0035828364 0.2810777 0.16264312 255 132 0 446.09305
-0.107169606 -0.12544507 -0.32116574 0 4 255 33.414097
0.12806931 -0.123063765 0.23880236 0 40 255 42.282406
-0.56155235 -0.00093684846 -0.20178157 30 255 226 103.27407
-0.60422444 0.24393359 -0.16482882 14 255 242 355.93854
-0.4011332 -0.0010644173 0.2670591 66 255 190 112.54144
-0.6751108 0.20880935 0.14165787 0 188 255 335.28284
0.23935279 0.20070864 -0.13746507 0 216 255 342.50714
-0.92468005 0.075435005 0.15192725 146 255 110 132.6979
0.087991096 -0.022241022 0.25832057 14 255 242 99.33075
-0.86633813 0.10014104 0.20144564 255 236 0 164.5402
-0.30811346 -0.056429762 -0.25825253 0 192 255 80.38118
0.22485234 0.010565706 0.082295336 134 255 122 129.13887
0.28000507 -0.0051466557 0.13891512 78 255 178 115.545395
-0.3584398 -0.03920782 0.20153068 0 208 255 84.79826
0.37464067 0.10564781 0.21730684 244 0 0 226.21283
0.723438 -0.039824408 -0.2256584 42 255 214 106.14827
0.6952026 -0.16986068 0.32525223 0 148 255 69.41718
-0.4462717 0.008758465 0.2679946 86 255 170 117.69567
-0.56093574 -0.046755705 -0.26305765 0 228 255 89.95617
-0.28366256 0.2836929 -0.03362318 255 104 0 453.2328
0.2874679 0.05072896 -0.22504182 255 184 0 177.50273
0.38106167 0.106030524 -0.17318466 224 0 0 231.97125
0.30258495 0.09116863 0.110467024 255 52 0 210.77386
-0.61338824 0.09242307 -0.32154846 255 172 0 180.02011
-0.58219737 0.24735671 0.14895062 194 255 62 400.94208
-0.6109857 0.10921977 -0.29709756 255 104 0 197.24222
-0.28617147 0.27739945 0.166534 255 184 0 433.61252
0.30411577 0.09208287 -0.29799056 255 48 0 211.18152
-0.7576486 0.14934051 -0.18617553 255 16 0 219.04129
0.31865874 -0.15812424 0.13319573 0 8 255 34.01626
-0.06815447 0.2844583 -0.031582065 255 96 0 455.33136
-0.61107075 -0.1575289 0.15420225 0 184 255 78.034355
0.39079952 0.10586043 -0.085437834 224 0 0 231.2989
-0.10115256 0.1458961 -0.28910318 0 0 164 265.2545
-0.0054538613 0.106349446 -0.23850046 248 0 0 225.17004
0.61338776 -0.053049155 0.2950607 0 236 255 91.20589
-0.13546886 -0.07416197 -0.13323401 0 172 255 75.43964
0.95529634 -0.09523227 -0.052694883 54 255 202 109.332664
-0.40636358 0.0013806723 -0.20390774 98 255 158 120.73088
0.55445045 0.0254276 -0.3112791 218 255 38 150.7343
0.8034031 -0.14489949 0.2531965 0 176 255 76.84917
-0.10319368 0.2812903 0.16068706 255 148 0 442.38736
-0.35752556 -0.12897451 -0.28950712 0 120 255 62.25409
0.5796455 0.012734394 -0.31168306 186 255 70 142.19518
0.5722039 0.09718567 -0.26378053 255 4 0 222.6022
-0.6355004 0.1613746 0.25966004 0 0 232 282.39792
-0.9330572 0.018475039 0.033840038 134 255 122 129.4731
-0.8199452 0.12002069 0.045618992 255 152 0 185.86082
0.6460882 0.08974409 -0.24519786 255 40 0 213.50212
0.5536638 -0.15406325 0.29410392 0 148 255 69.324684
0.59735644 -0.15302144 -0.28104502 0 120 255 62.884087
0.9433048 -0.083198175 0.23835586 22 255 234 101.04515
0.65335965 -0.002935443 -0.25704062 162 255 94 136.84
0.82834303 -0.09684816 -0.307941 58 255 198 110.232765
-0.088268 -0.07014352 0.33945504 0 128 255 64.22904
-0.5537493 -0.030554328 0.32552865 0 196 255 81.65272
0.8052104 -0.04490594 0.32214805 38 255 218 105.228966
0.9375854 -0.091617785 -0.24900371 102 255 154 121.65585
-0.1063404 0.23919223 -0.23173924 202 255 54 402.11264
-0.4260306 -0.018987989 0.32250947 10 255 246 98.56252
-0.8384003 -0.0255791 0.3377966 0 216 255 86.7205
0.513458 -0.21015151 0.2881294 0 100 255 57.000553
-0.39177808 -0.1990104 -0.29495013 0 212 255 85.10192
0.296334 0.09990716 0.21305451 255 24 0 217.183
-0.9435392 -0.09472199 0.3063719 82 255 174 116.60683
-0.5634659 -0.17313497 -0.25553104 78 255 178 115.404175
-0.11652473 -0.058066905 0.342623 0 156 255 71.084694
0.81326854 0.06697287 0.11597379 255 140 0 188.16983
-0.011981188 0.28348023 0.106172174 255 120 0 449.323
-0.052803557 0.028616846 0.07508764 186 255 70 142.38918
-0.5959324 0.10645576 -0.30534706 255 108 0 196.27452
-0.62476325 0.24584715 -0.07036331 62 255 194 367.8866
-0.13236466 -0.034232594 0.34513187 0 216 255 86.65644
0.24868666 -0.15812424 0.014555719 0 32 255 40.044697
-0.636606 -0.155424 -0.111015595 74 255 182 114.64472
0.48407438 0.104946174 0.15700878 212 0 0 234.61565
-0.957338 -0.068421334 -0.27117962 255 172 0 180.04126
-0.34719238 0.025916617 0.073960766 166 255 90 137.23793
-0.73842806 -0.14713196 0.11365627 50 255 206 108.345436
-0.4902195 0.25386277 0.19196294 206 255 50 403.7138
-0.65484846 -0.005933336 0.3439625 2 255 254 96.629234
-0.3674335 -0.13818079 -0.22331963 0 116 255 61.73348
-0.47250858 0.020792559 -0.21173203 150 255 106 133.66516
-0.12300953 0.14253677 0.29180765 152 0 0 249.30028
-0.29542026 -0.115558416 -0.06572828 0 28 255 39.897297
-0.65546507 -0.15374433 0.21513814 0 176 255 76.08638
0.7652172 -0.14785485 0.29131863 0 172 255 75.507645
-0.13589409 0.27982327 -0.17935053 255 92 0 456.1613
0.2874679 0.05072896 -0.22504182 255 184 0 177.50273
-0.59112734 -0.11143364 0.3280375 0 28 255 39.524075
0.1362763 -0.04554379 -0.22119346 0 236 255 91.11056
-0.1703167 -0.112985745 0.26593223 0 88 255 54.221054
0.49472648 -0.15812424 0.100389004 0 60 255 47.008343
-0.7533962 0.1455134 -0.22640258 255 36 0 214.85138
0.7317088 -0.053453125 0.21766828 0 248 255 94.20456
0.68495446 -0.08032785 -0.31978375 0 240 255 92.94383
0.4358317 -0.15812424 0.07527899 0 28 255 39.534958
0.5178379 -0.009888004 0.306138 66 255 190 112.64632
-0.045021795 -0.0024464263 0.09101261 90 255 166 118.3175
-0.42856073 0.10447842 0.08155118 255 80 0 203.87213
0.24116004 0.062188994 0.19340874 255 200 0 173.62587
0.54575443 0.0046762284 0.28987285 138 255 118 130.51436
0.40708593 0.09070087 -0.1735036 255 28 0 216.69742
-0.8494564 0.10322398 0.15196978 255 220 0 168.20563
-0.49304733 0.2609429 -0.07576378 234 255 22 410.31793
0.84977484 -0.13630979 -0.25098103 14 255 242 99.68722
0.58070856 -0.15718873 0.17295502 0 108 255 59.786
-0.0430232 0.030764274 -0.20224933 214 255 42 149.616
-0.36994237 -0.065019466 -0.07546611 0 144 255 68.18338
-0.9047792 0.04600888 -0.31040737 214 255 42 149.4797
-0.743382 -0.14660043 0.19557743 0 244 255 93.51056
0.16306598 -0.15812424 0.031224852 0 36 255 41.626305
-0.088480614 0.2835653 0.10217498 255 128 0 447.20563
0.30069265 0.16717903 -0.06768435 0 36 255 297.0794
0.7530555 -0.15433966 -0.1963386 0 188 255 79.058754
-0.43687403 0.004399826 -0.23501353 106 255 150 122.1766
0.49306807 -0.15812424 0.017723706 0 48 255 44.423935
0.24945208 0.19069442 -0.1841982 0 160 255 328.99442
-0.92818826 -0.0325104 -0.3211232 255 212 0 170.33759
0.46140948 0.009438837 0.3363083 130 255 126 128.22118
0.5614668 -0.081369676 -0.28589267 0 152 255 70.88936
0.53289115 0.09924805 0.10041027 224 0 0 231.22267
-0.59112734 -0.11143364 0.3280375 0 28 255 39.524075
0.6302057 0.026256803 -0.27898264 255 248 0 161.88773
-0.29565415 -0.115494624 0.24192782 0 64 255 48.261333
-0.36736968 -0.05983162 -0.29350433 0 152 255 70.77428
0.29975712 0.059913997 0.22849046 255 196 0 174.66371
0.84452313 0.06178502 -0.09060441 255 156 0 184.8022
0.3152569 0.108220465 0.12003477 228 0 0 230.79034
0.61768264 -0.23292272 0.23603834 0 84 255 53.21911
0.52600235 -0.15812424 0.09915583 0 72 255 50.060703
-0.6583141 -0.15353172 0.28698125 0 120 255 62.533783
0.8870677 -0.1253175 0.2752023 0 216 255 86.428
0.7421483 0.078921914 0.0228265 255 84 0 202.60814
0.296334 0.09990716 0.21305451 255 24 0 217.183
-0.829683 -0.103715666 0.32574126 0 216 255 86.6012
0.4051086 0.09070087 -0.20348251 255 24 0 217.36278
-0.023632575 0.14968069 -0.07848527 0 0 184 270.29282
0.50178534 -0.05800312 -0.3049431 0 176 255 76.253494
0.13899781 -0.11608995 -0.04015051 0 128 255 64.118256
0.71082985 -0.075352624 0.25013483 0 224 255 88.22312
0.22872198 -0.08904514 0.120417476 0 140 255 67.92492
-0.38514444 -0.19010176 -0.25729576 0 188 255 79.56891
0.31712788 0.09189152 -0.21000983 255 4 0 222.08325
-0.48985806 0.020537421 -0.2792803 138 255 118 130.20494
0.09857939 0.26264384 -0.19901755 255 192 0 431.2565
0.6752167 -0.15672097 -0.14433259 0 132 255 65.91647
-0.7983221 -0.14230557 -0.09326211 198 255 58 145.10468
-0.9602083 -0.1110722 -0.093942486 255 204 0 172.72224
0.6967335 -0.17874804 -0.26592797 0 144 255 68.48529
-0.57558507 -0.052772757 -0.327119 10 255 246 98.789474
-0.12613499 0.2844583 -0.007726492 255 104 0 453.67926
-0.5802626 0.1751734 -0.25331983 0 0 148 261.56546
0.40221703 0.09046699 0.13568334 255 24 0 217.25815
0.66224706 0.08840461 0.14739852 255 16 0 219.78264
0.58993614 0.09393264 0.06377644 236 0 0 228.45766
0.5583626 -0.15812424 0.01006951 0 92 255 55.433533
0.80786806 -0.14547355 0.17306133 0 172 255 75.301285
-0.55749136 -0.16713917 -0.3053896 82 255 174 116.29871
-0.2856612 0.2801422 0.13685274 255 164 0 438.94714
0.7717233 -0.0049765613 -0.29454616 158 255 98 135.36256
0.66097134 0.086724944 -0.12955575 255 64 0 207.71042
-0.26021096 0.071225196 -0.33237064 255 172 0 180.64987
-0.39881566 0.0076953825 -0.14405619 118 255 138 125.50278
0.053036943 0.2782499 -0.13066137 255 108 0 452.6245
0.2701609 0.16294795 -0.27285928 0 0 248 286.76035
-0.5280227 0.25326744 0.15014127 214 255 42 405.79102
0.9199169 -0.074013144 -0.29433355 122 255 134 126.266235
-0.2856612 0.2801422 0.13685274 255 164 0 438.94714
0.7130836 -0.13922262 0.2504325 0 168 255 74.10622
0.7528429 0.07783757 0.0044139107 255 88 0 201.68803
-0.4011332 0.27191392 0.07557665 255 196 0 430.64932
0.43848938 -0.117025465 0.30598918 0 132 255 65.696465
-0.24802803 -0.05253888 0.14516604 0 208 255 84.271095
0.62059546 0.09082844 -0.086054415 255 36 0 214.01695
-0.4267535 0.022536015 0.34704542 170 255 86 138.05623
-0.8359765 -0.13903128 -0.24105185 255 228 0 166.72292
-0.36413795 -0.11632383 -0.32571572 0 124 255 63.649677
0.60535085 0.09238054 0.069878526 244 0 0 226.9708
-0.69167364 0.18063766 0.23910002 0 60 255 303.80573
-0.9216397 0.052366115 0.24328858 70 255 186 113.52147
0.6990297 -0.15608312 -0.1723342 0 152 255 70.10759
-0.003412743 0.09999221 -0.21747267 255 20 0 218.32674
0.77032 -0.1547649 -0.04323345 0 152 255 70.04058
-0.79436743 -0.14241187 0.26038292 0 240 255 92.32344
-0.5187952 0.2589443 -0.011915037 226 255 30 408.56412
0.18590102 -0.122362144 0.2010204 0 44 255 43.87484
0.5987385 0.09448544 0.26306188 255 4 0 222.6523
0.051591147 0.01500939 -0.03062529 158 255 98 135.16966
0.40015465 -0.15812424 0.022656407 0 8 255 34.327198
-0.35735545 -0.12867685 -0.25538218 0 108 255 59.524208
0.46425852 -0.04035595 0.26659134 0 220 255 87.16434
-0.59202033 0.24550696 0.1609422 186 255 70 398.82672
0.556853 0.009013604 -0.2704142 178 255 78 140.39003
-0.11652473 -0.058066905 0.342623 0 156 255 71.084694
0.6029908 0.09257189 0.0965619 244 0 0 226.3419
-0.036772273 0.0059306645 -0.20616148 142 255 114 131.68892
0.70406866 0.082515135 0.086016126 255 56 0 209.65448
0.8335096 0.06399623 -0.03800308 255 148 0 186.89006
-0.38977948 -0.15748638 0.26939788 0 0 200 18.556835
-0.049444214 0.28333142 -0.11333311 255 88 0 457.98962
-0.37642717 0.142473 0.16906415 0 0 156 263.3957
-0.04602109 0.042713325 -0.16331926 246 255 10 157.52286
0.4011327 -0.1306967 -0.31251225 0 168 255 74.62572
-0.4877319 -0.051518317 0.265103 0 144 255 68.2195
-0.47712234 -0.23575053 0.25821424 0 24 255 38.841022
-0.8199452 0.12002069 0.045618992 255 152 0 185.86082
0.51792294 0.10205459 -0.26318523 240 0 0 227.15074
-0.380233 -0.12782638 0.27660558 0 8 255 34.709137
0.8451823 0.026299328 -0.2573383 250 255 6 158.55725
-0.47880203 -0.23668604 0.3008651 0 0 255 32.592712
-0.35454893 0.26425973 0.20931244 242 255 14 412.1514
-0.4690429 0.050346255 0.3404756 255 220 0 168.17259
-0.38376245 0.10990014 0.19698068 240 0 0 227.88135
-0.6399441 -0.15504129 0.19517344 0 176 255 76.58258
-0.6017581 0.24221139 -0.1928942 0 252 255 351.13974
0.699625 0.08451373 0.21243791 255 44 0 212.8556
0.13710551 -0.15812424 0.057227854 0 32 255 40.542076
-0.2622521 -0.048116453 -0.06362337 0 220 255 87.66127
0.48518 0.10462725 0.21073698 224 0 0 231.17993
0.61768264 -0.23292272 0.23603834 0 84 255 53.21911
-0.6605466 -0.15334037 -0.22142734 134 255 122 129.94559
-0.18360522 -0.04837159 0.21639258 0 224 255 88.763794
-0.88696194 0.04475444 0.32374266 66 255 190 112.89201
-0.19281153 -0.11443154 -0.067514256 0 76 255 51.41614
-0.9306121 0.018389992 0.186116 78 255 178 115.578514
0.6368606 0.08938265 -0.012297748 255 24 0 217.83188
-0.4264771 0.10056627 -0.13601929 255 100 0 198.3033
0.88636607 0.00082786917 -0.14080316 142 255 114 131.62941
-0.044065017 -0.00625226 0.15235248 82 255 174 116.85275
-0.1063404 0.23919223 -0.23173924 202 255 54 402.11264
0.87726605 -0.07579912 0.30760506 18 255 238 100.59786
0.70874625 -0.15710367 -0.09806725 0 136 255 66.81349
-0.2601897 -0.053325556 -0.10950602 0 208 255 84.476494
-0.012406422 0.28411812 -0.073382474 255 88 0 457.39194
-0.16774404 -0.112815656 -0.10455205 0 80 255 52.989304
-0.19281153 -0.11443154 -0.067514256 0 76 255 51.41614
0.07842335 -0.11489929 -0.09151866 0 128 255 64.1587
0.3048812 0.1042658 0.1279441 248 0 0 225.39452
-0.56865376 -0.20141296 -0.27940786 110 255 146 123.78999
-0.17040174 -0.047499865 0.26174366 0 212 255 85.14902
0.14807652 -0.122829884 0.19834144 0 52 255 45.724686
-0.43700162 0.11068682 -0.20705447 255 64 0 207.10521
0.35378298 0.11848985 0.21318208 188 0 0 240.1718
-0.7661532 -0.14492075 -0.057606325 158 255 98 135.30194
-0.6879529 -0.15110789 0.20688862 0 200 255 82.26525
-0.22083439 -0.11626005 -0.08773409 0 60 255 47.04652
0.62059546 0.09082844 -0.086054415 255 36 0 214.01695
-0.41346493 0.27144614 -0.009299855 255 176 0 435.7566
-0.6286541 0.057830356 -0.3339015 194 255 62 144.95331
-0.56884515 -0.023410413 0.24152385 0 212 255 85.90443
-0.37177086 -0.024728635 -0.2660343 18 255 238 100.85254
0.19157787 -0.05170967 0.15507397 0 220 255 87.17771
0.00013795278 0.28331017 0.114464216 255 120 0 449.56186
-0.37521526 0.0962289 -0.31961364 255 108 0 196.87364
-0.7029211 -0.14972588 -0.29597068 194 255 62 144.53448
0.45071486 -0.11613248 -0.19818835 0 76 255 51.579716
0.49865988 -0.065954976 0.24930562 0 156 255 71.66412
-0.051570382 0.2844583 -0.02443815 255 96 0 455.1055
0.8165215 -0.051922284 -0.3192309 94 255 162 119.4594
-0.24713504 -0.052475095 0.06564747 0 204 255 83.19242
0.79796016 0.023811715 0.25727874 198 255 58 145.96272
0.09972752 0.2741889 -0.018506149 255 152 0 441.78973
0.5472002 0.0059519275 -0.28125763 158 255 98 135.07414
-0.12615626 -0.15812424 0.03989961 0 0 252 31.91641
-0.27496657 0.27561346 -0.19081056 255 112 0 451.98254
-0.6755361 -0.15219223 -0.1479896 122 255 134 126.04487
0.722375 0.08068663 0.08843996 255 68 0 206.00853
0.24052219 -0.02540901 0.34049684 6 255 250 97.13301
-0.47901464 0.25620157 -0.17454539 170 255 86 394.6441
-0.92521167 -0.13188736 -0.1334679 255 200 0 173.21707
-0.29542026 -0.115558416 -0.06572828 0 28 255 39.897297
0.93441737 -0.10960514 -0.07659298 34 255 222 104.77968
-0.70317626 -0.15000229 0.11059459 26 255 230 102.09124
-0.92825204 0.07011958 -0.06336823 130 255 126 128.06532
-0.5726509 -0.1959487 -0.2373098 98 255 158 120.71729
-0.9342266 -0.020284953 0.22338767 94 255 162 119.70816
0.89638036 -0.0021487628 -0.23671447 150 255 106 133.0116
0.14439827 -0.0085485205 0.25832057 54 255 202 109.617455
0.4316857 0.1065408 -0.04555097 220 0 0 232.67818
-0.12613499 0.2844583 -0.007726492 255 104 0 453.67926
0.23699276 -0.15812424 0.15615831 0 0 244 29.824032
-0.91966236 0.07490346 -0.21891846 174 255 82 139.38257
-0.29542026 -0.115558416 -0.06572828 0 28 255 39.897297
-0.5737353 -0.06669914 0.26363596 0 64 255 48.260838
0.05546077 -0.15812424 0.09124649 0 32 255 40.170906
0.93235505 -0.10192969 -0.20756476 78 255 178 115.66905
0.89310604 -0.13110067 -0.16969775 22 255 234 101.266335
0.39619997 0.09042446 0.022528837 255 36 0 214.50317
0.48026857 -0.019498272 -0.2078624 86 255 170 117.75137
0.82107157 0.06578221 -0.09253922 255 136 0 189.17035
0.5548332 0.092231706 -0.29348308 255 12 0 220.14307
-0.93380135 -0.0034882461 -0.03162459 174 255 82 139.38284
0.55668294 0.09892913 -0.238139 255 4 0 222.6381
0.6566765 0.016604014 -0.29705504 234 255 22 154.79727
-0.59557104 0.24214761 -0.20284465 0 252 255 351.10715
0.024354974 -0.0049553006 0.34275055 58 255 198 110.482254
0.55938315 0.057298817 -0.32023025 255 156 0 184.4045
-0.9287836 0.06308199 0.15109804 98 255 158 120.64282
0.6029908 0.09257189 0.0965619 244 0 0 226.3419
-0.37011245 -0.054282334 -0.2534899 0 180 255 77.5412
0.24989857 0.19843365 0.04774516 0 204 255 339.83096
0.058713805 -0.021560648 0.25832057 18 255 238 100.22632
-0.14537677 -0.049796123 0.03945311 0 232 255 90.244514
0.80786806 -0.14547355 0.17306133 0 172 255 75.301285
-0.20792855 -0.15812424 0.007156664 0 0 228 25.809622
0.9006327 -0.002361379 0.14682445 102 255 154 121.35384
-0.8790526 -0.13569319 -0.110930555 255 244 0 162.42873
-0.6726658 0.06095582 -0.3320092 186 255 70 142.56479
0.9156009 -0.047903832 -0.30160505 142 255 114 131.45343
0.83839977 0.06331586 0.20676105 255 156 0 184.24762
-0.8737797 -0.1332481 -0.31117278 255 176 0 179.25972
0.033965237 0.28175804 0.09222453 255 124 0 448.73047
0.8434813 0.062231515 -0.048081104 255 152 0 185.02855
0.8850904 0.05083527 0.05342202 255 208 0 171.95709
-0.48819965 -0.15521139 0.2780939 0 8 255 34.108597
-0.9716258 -0.04915827 0.16204779 170 255 86 138.15562
0.6947773 0.07783757 -0.2882952 255 80 0 203.64038
0.8662738 0.055108864 -0.20331241 255 180 0 178.46996
0.5661656 -0.044459447 -0.29794803 0 212 255 85.15124
0.5957619 -0.23387949 0.32010692 0 96 255 56.62309
0.7009007 -0.051560838 -0.2964597 18 255 238 100.59442
0.2724359 0.04579626 -0.30279568 255 240 0 163.45135
0.56338036 -0.15720998 -0.18266734 0 108 255 59.251915
0.43933988 -0.13012263 0.22647059 0 84 255 53.93988
0.21088344 -0.122043215 0.11865276 0 76 255 51.625443
-0.78805274 0.106923506 -0.28742352 255 204 0 172.95377
0.5366332 0.09882282 0.28581187 255 0 0 223.30067
0.21475306 0.00548417 0.104237355 118 255 138 125.077484
-0.9021002 0.08897867 0.24669044 222 255 34 151.71434
0.35159302 0.09082844 -0.027818752 255 40 0 213.53699
0.52100587 0.100162305 -0.030029966 236 0 0 228.73419
0.64810807 -0.12597662 -0.28691325 0 176 255 76.125305
0.82068884 0.06571843 -0.11326933 255 140 0 188.76578
-0.049444214 0.28333142 -0.11333311 255 88 0 457.98962
-0.39875188 -0.050795425 -0.24942894 0 176 255 76.96629
-0.63044006 0.23997892 -0.116033345 0 252 255 351.8445
-0.31581017 0.03280539 0.29287076 206 255 50 147.5792
0.58092123 -0.13599086 -0.28950712 0 136 255 66.47322
0.20692877 -0.11526074 -0.032368746 0 128 255 64.53135
-0.16657464 -0.047265988 -0.12623894 0 244 255 93.01023
0.568717 0.09788731 0.21367109 240 0 0 227.29417
-0.49891555 0.25607398 -0.15334754 166 255 90 393.48752
-0.84952015 -0.13779809 0.24962454 34 255 222 104.213684
0.37408787 -0.15812424 0.16510949 0 32 255 40.9741
-0.46957445 -0.23570801 -0.23743737 42 255 214 106.058685
0.89746463 -0.13033526 0.17123283 0 212 255 85.08133
-0.5469881 -0.040249642 -0.31344777 0 228 255 89.02243
-0.2111816 -0.11562219 0.25404695 0 92 255 55.28141
-0.9248502 0.07186305 -0.19878368 174 255 82 139.21413
-0.59918547 -0.15463734 0.28221864 0 84 255 53.198956
-0.022314351 -0.06136246 0.20695241 0 192 255 80.34297
0.24466822 0.027298624 0.1702548 178 255 78 140.63072
-0.021230008 -0.15812424 0.08080702 0 24 255 38.154408
-0.95997447 -0.035274416 0.13355719 158 255 98 135.75717
-0.42717874 0.16473393 0.16098471 0 12 255 291.43674
0.7007731 0.08272775 0.12569037 255 48 0 211.8774
0.87973243 -0.13103689 -0.25429785 38 255 218 105.156364
-0.49430174 0.23523757 0.22172925 114 255 142 380.33698
-0.7751682 0.10107655 0.3032039 255 116 0 194.92094
-0.41201916 0.050665177 0.014194271 238 255 18 155.20686
0.43933988 -0.13012263 0.22647059 0 84 255 53.93988
-0.4011332 -0.0010644173 0.2670591 66 255 190 112.54144
-0.15698564 0.28371412 0.094350696 255 128 0 447.23993
-0.95357466 -0.031511102 0.16438659 142 255 114 131.08861
0.40942472 0.107242435 0.09420186 204 0 0 236.24518
0.8942329 0.03186988 0.22800145 210 255 46 148.0933
0.87698966 0.019538121 0.24868903 162 255 94 136.92708
-0.3737057 0.2722541 -0.12887539 255 152 0 441.95663
-0.57275724 -0.19728819 0.294274 0 56 255 46.54589
0.5957619 -0.23387949 0.32010692 0 96 255 56.62309
0.5886179 0.09410273 0.038453817 236 0 0 228.57637
0.12371066 -0.045692626 -0.17901036 0 248 255 94.292755
-0.7975142 0.12958843 -0.1385069 255 108 0 196.99948
0.25308782 -0.039250344 0.34098586 0 216 255 86.61162
-0.0664748 0.08311047 0.048978336 255 136 0 189.91673
0.2055255 0.17914933 -0.26501372 0 84 255 309.3166
-0.43432263 0.10730622 -0.3116618 255 76 0 204.07054
0.81775475 -0.14674926 0.014789596 0 176 255 76.31717
-0.67700315 -0.019200608 -0.3430865 78 255 178 115.10434
0.6370307 0.0048037977 -0.2970338 194 255 62 144.55869
-0.6286541 0.057830356 -0.3339015 194 255 62 144.95331
0.7742959 0.07411679 0.029226258 255 104 0 197.03366
-0.8641907 0.07862425 0.3169177 238 255 18 155.09932
-0.28765976 -0.117216825 0.071579464 0 36 255 41.501434
-0.22176988 -0.15812424 0.05924771 0 0 224 24.887024
0.39494553 0.090445735 0.08065819 255 28 0 216.30075
0.4267955 -0.036316235 -0.33717576 0 184 255 78.61292
-0.47901464 0.25620157 -0.17454539 170 255 86 394.6441
-0.4345565 -0.054686304 -0.29886225 0 132 255 65.91689
-0.71316916 -0.04256716 -0.34329915 126 255 130 127.14605
0.65697414 -0.21727414 0.3122401 0 108 255 59.538433
0.31576717 0.13549918 0.2807091 140 0 0 252.4659
-0.3445347 -0.029023489 0.3477683 0 236 255 91.17268
-0.6747069 -0.15219223 -0.23628923 154 255 102 134.23187
-0.11652473 -0.058066905 0.342623 0 156 255 71.084694
0.66224706 0.08840461 0.14739852 255 16 0 219.78264
-0.6469604 0.12907815 -0.27685648 255 48 0 211.691
-0.6589732 -0.15348919 -0.26881957 150 255 106 133.62126
0.00092463393 0.08651232 -0.0827376 255 100 0 198.16626
-0.3026067 0.007227625 -0.06362337 126 255 130 127.123856
-0.56093574 -0.046755705 -0.26305765 0 228 255 89.95617
0.6454716 -0.15812424 0.0039886776 0 120 255 62.187332
-0.32858846 -0.10224862 0.18890126 0 64 255 48.657536
-0.9400523 -0.11774836 -0.26390812 255 148 0 186.3487
-0.88281596 -0.03146858 -0.33543232 255 248 0 161.23193
0.06813271 0.27635762 -0.12721696 255 120 0 449.93643
-0.7029211 -0.14972588 -0.29597068 194 255 62 144.53448
-0.54603136 0.0059944494 -0.24959902 58 255 198 110.52456
0.72558546 0.08215369 0.18575454 255 52 0 210.25513
-0.64432395 0.23396187 0.09230957 74 255 182 370.301
-0.08618435 -0.15812424 0.020317627 0 4 255 33.959736
-0.7039629 0.16809328 0.25521636 0 0 244 285.55545
-0.08618435 -0.15812424 0.020317627 0 4 255 33.959736
0.7852457 0.072203234 -0.041128542 255 112 0 195.85672
-0.9484081 -0.08183743 0.30630812 94 255 162 119.4764
