ply
format ascii 1.0
element vertex 844
property float x
property float y
property float z
property uchar red
property uchar green
property uchar blue
property float weight
end_header
-0.34547418 0.01504534 -0.2869517 150 255 106 133.24948
-0.34547418 -0.17039634 -0.6989081 38 255 218 105.51271
0.33531317 0.038646378 -0.7043638 154 255 102 134.12227
0.0009967386 0.037748624 0.35890886 206 255 50 147.04622
0.06016336 0.038646378 0.5773092 226 255 30 152.92674
-0.18380617 0.037852198 -0.71546507 42 255 214 106.39789
0.20641385 0.027942173 -0.51640147 78 255 178 115.167404
-0.13237418 0.037748624 -0.645508 82 255 174 116.21881
0.3576021 0.037748624 0.5257908 210 255 46 148.91289
-0.0068415008 0.038646378 -0.250661 246 255 10 157.61008
-0.041284867 0.037748624 -0.01698132 222 255 34 151.17166
-0.0049251025 0.037748624 0.3648307 202 255 54 146.95131
0.2375769 -0.0019432604 -0.7125301 146 255 110 132.64215
-0.3194388 -0.19472252 0.7104729 0 148 255 69.19307
-0.14003979 0.037748624 0.5665877 206 255 50 147.10156
0.36801282 0.030808145 0.14770803 230 255 26 153.223
0.18226033 0.038646378 -0.66449934 130 255 126 128.3995
-0.19668573 0.027942173 -0.5377581 106 255 150 122.89427
0.004864064 0.037748624 0.18707189 206 255 50 147.78592
-0.05784185 -0.0019432604 0.6666029 54 255 202 109.80559
-0.18939997 0.027942173 -0.5998424 70 255 186 113.262
0.024252484 0.037748624 -0.0995936 230 255 26 153.86852
-0.0049251025 0.037748624 0.3648307 202 255 54 146.95131
-0.082185276 0.038646378 0.20098735 218 255 38 150.31459
0.2470035 0.037748624 0.27313712 218 255 38 150.89136
0.35468432 0.038646378 0.10540916 255 252 0 160.71219
0.34044084 0.027942173 0.5985449 166 255 90 137.54207
-0.3216832 0.037748624 -0.28222114 226 255 30 152.51631
-0.3074397 -0.53791314 0.7104729 170 255 86 138.65724
-0.3430053 0.037748624 -0.71328974 10 255 246 98.984406
0.09857764 0.037748624 -0.6880658 142 255 114 131.43251
0.16749889 0.037748624 0.51486224 222 255 34 151.92986
-0.08272049 0.037748624 0.013836428 218 255 38 150.03702
0.30021372 0.027942173 0.6111483 166 255 90 137.97984
-0.31621024 0.038646378 -0.3224482 226 255 30 152.2668
0.068277836 0.037748624 0.25929072 206 255 50 147.22751
-0.25771695 0.037748624 -0.12840863 230 255 26 153.85602
0.08467944 0.037748624 -0.29741418 246 255 10 157.78152
0.019521918 0.037748624 0.16424775 210 255 46 148.09915
0.093933396 0.027942173 -0.35110784 198 255 58 145.64189
-0.09597989 0.037748624 -0.4006234 218 255 38 150.83093
0.16839665 0.027942173 0.64704186 174 255 82 139.01056
-0.2881376 0.027942173 -0.52171904 102 255 154 121.999435
0.32212284 0.037748624 0.24047205 230 255 26 153.09297
-0.023674723 0.037748624 -0.4657982 190 255 66 143.08728
0.19940433 0.024817238 -0.68554515 138 255 118 130.05994
0.17801318 0.037748624 -0.52789986 114 255 142 124.46651
-0.30403852 0.037748624 -0.22576508 230 255 26 153.67485
0.12842855 0.027942173 -0.2399913 218 255 38 150.3471
-0.08272049 0.037748624 0.013836428 218 255 38 150.03702
-0.34188306 0.037748624 -0.422498 198 255 58 145.84541
-0.30137974 -0.27004904 0.667 0 200 255 82.953445
0.10096019 0.037748624 0.3383119 210 255 46 148.7729
-0.16079213 0.037748624 0.13560538 214 255 42 149.07059
-0.080061704 0.038646378 0.703049 218 255 38 150.58887
-0.148724 0.037748624 -0.09548457 226 255 30 152.01039
-0.2218924 -0.0019432604 -0.7030172 30 255 226 103.31373
0.3675984 -0.29715484 0.7091953 0 156 255 71.549965
-0.3452497 0.023194352 -0.26644105 178 255 78 140.42918
0.28650546 0.038646378 0.2703575 226 255 30 152.37498
-0.2807655 0.037748624 0.2603784 226 255 30 152.5267
0.055847146 0.037748624 -0.1895089 246 255 10 157.92657
-0.08579363 0.038646378 0.17315641 222 255 34 151.06232
-0.22727904 0.038646378 0.22900818 226 255 30 152.939
-0.17103018 0.027942173 0.64571244 182 255 74 141.64084
0.32835543 0.037748624 -0.47948924 118 255 138 125.79665
0.33847263 0.024817238 0.20041761 186 255 70 142.63805
0.11879476 0.037748624 -0.012181693 242 255 14 156.38155
-0.06264148 0.037748624 -0.12307379 226 255 30 152.53688
-0.09254418 0.038646378 -0.16407779 234 255 22 154.61028
-0.08719208 0.027942173 0.55817974 174 255 82 139.92761
0.26646098 0.037748624 0.09895211 230 255 26 153.23216
0.10947176 0.038646378 -0.55737096 110 255 146 123.36033
0.28058362 0.037748624 0.37232366 226 255 30 152.06049
-0.3194388 -0.19472252 0.7104729 0 148 255 69.19307
0.1876297 0.037748624 0.29678997 218 255 38 150.01157
0.35426998 0.027942173 -0.05311664 242 255 14 156.08733
0.1295335 0.038646378 0.48666874 222 255 34 151.67032
0.2553942 0.037748624 -0.22745702 255 244 0 162.6276
0.16309635 0.027942173 0.07485039 178 255 78 140.12851
-0.34547418 -0.39979434 -0.68556243 248 0 0 225.20111
-0.2735143 0.027942173 -0.2116597 202 255 54 146.8968
-0.06264148 0.037748624 -0.12307379 226 255 30 152.53688
0.3155967 -0.00035489877 0.4592694 94 255 162 119.54874
-0.27909085 0.037748624 -0.5976325 102 255 154 121.77075
0.36794373 -0.45854658 -0.71432567 18 255 238 100.319275
-0.3100985 0.037748624 0.18700282 210 255 46 148.5568
-0.078749575 0.037748624 -0.17460935 234 255 22 154.40042
0.07651317 0.038646378 0.52365005 222 255 34 151.06424
-0.020998672 0.037748624 0.43553028 206 255 50 147.09798
0.130414 0.038646378 -0.11079848 255 248 0 161.40266
0.36345488 0.028684568 0.07775088 222 255 34 151.7209
0.3131969 0.027942173 0.08857594 206 255 50 147.4386
-0.016527079 0.037748624 -0.5472365 134 255 122 129.92017
0.2581566 0.038646378 0.24917354 222 255 34 151.69543
-0.31847194 0.038646378 -0.638861 78 255 178 115.23418
0.29308337 0.022054868 -0.71225387 154 255 102 134.1729
0.14410503 0.037748624 0.14446224 206 255 50 147.49939
-0.13430785 0.038646378 0.003287608 218 255 38 150.88765
0.3596566 -0.26590547 0.7104729 0 160 255 72.873886
-0.19097108 -0.0019432604 -0.69818306 38 255 218 105.20157
0.21050562 0.037748624 0.41519228 222 255 34 151.74695
0.13369432 0.038646378 0.19337355 210 255 46 148.40933
0.21922438 0.027942173 0.46893772 190 255 66 143.49994
0.18966696 0.0095206 0.7104729 82 255 174 116.18464
0.26250732 0.037748624 0.03358741 234 255 22 154.93465
0.29883257 0.027942173 -0.5129312 66 255 190 112.78019
0.2721066 0.027942173 -0.41419357 138 255 118 130.87756
-0.21657483 0.037748624 -0.040409714 222 255 34 151.52043
-0.27265105 0.037748624 -0.005051312 222 255 34 151.01755
-0.32972863 -0.0019432604 -0.38427362 86 255 170 117.17851
-0.08579363 0.038646378 0.17315641 222 255 34 151.06232
-0.015871014 0.038646378 0.08099667 226 255 30 152.03426
0.32626638 0.037748624 0.16959985 242 255 14 156.36668
-0.30693904 -0.0019432604 0.35347044 62 255 194 111.6208
0.34560305 -0.0019432604 0.26731887 90 255 166 118.65955
-0.09014437 0.037748624 0.38613555 198 255 58 145.64005
-0.15316105 0.037748624 -0.06373452 222 255 34 151.31853
0.1005631 0.038646378 -0.6179878 66 255 190 112.57436
0.13844216 0.038646378 -0.32462355 242 255 14 156.39328
-0.1938025 0.027942173 0.18935084 178 255 78 140.47603
0.12977521 0.037748624 0.40971932 218 255 38 150.11012
0.33013374 0.024817238 -0.2710853 194 255 62 144.9435
-0.10079679 0.037748624 -0.017153969 218 255 38 150.28185
0.34686336 0.024817238 -0.077908956 234 255 22 154.94502
0.3025963 0.038646378 0.11733918 238 255 18 155.6413
-0.13335828 0.037748624 0.24760243 214 255 42 149.3708
-0.208633 0.037748624 -0.1589156 234 255 22 154.32118
0.3627643 0.037748624 -0.31462723 226 255 30 152.19302
0.2320176 0.027942173 0.55379444 186 255 70 142.64952
0.32341772 -0.5148127 0.7012535 78 255 178 115.63667
0.23098172 0.038646378 0.5646713 222 255 34 151.18599
-0.32258096 -0.6136885 0.6658778 206 255 50 147.41629
0.28077355 0.027942173 0.66815674 158 255 98 135.81618
-0.011865569 0.037748624 0.59476393 222 255 34 151.24951
-0.13841689 0.027942173 -0.024405204 186 255 70 142.32513
-0.051333006 0.037748624 -0.49804893 170 255 86 138.16484
-0.2191473 0.027942173 0.4465625 162 255 94 136.09009
0.20634478 0.027942173 0.26267463 182 255 74 141.63925
-0.050746 0.027942173 0.015183084 186 255 70 142.8945
-0.17930004 0.027942173 0.44352388 158 255 98 135.51308
-0.33540875 0.037748624 0.67395777 194 255 62 144.44202
-0.31287813 0.037748624 -0.49704757 154 255 102 134.72797
0.024856754 0.037748624 -0.6082332 82 255 174 116.34671
-0.033273976 0.037748624 -0.3028699 238 255 18 155.13397
0.0055891876 0.038646378 0.6555362 222 255 34 151.75702
-0.1938025 0.027942173 0.18935084 178 255 78 140.47603
0.158901 0.027942173 -0.32227555 206 255 50 147.05527
0.11157806 0.037748624 0.001302151 234 255 22 154.55363
-0.09361461 0.027942173 -0.034211632 190 255 66 143.07384
0.18871738 0.027942173 -0.22949429 226 255 30 152.07945
-0.051333006 0.037748624 -0.49804893 170 255 86 138.16484
0.08766626 0.038646378 0.3076841 214 255 42 149.22432
-0.24986146 0.037748624 0.10432147 214 255 42 149.43355
-0.016527079 0.038646378 -0.6478215 62 255 194 111.63702
0.21468371 0.027942173 0.40232995 190 255 66 143.2443
0.32835543 0.037748624 -0.47948924 118 255 138 125.79665
0.018451497 0.037748624 -0.501968 166 255 90 137.03667
0.3576021 -0.0063975938 0.6962467 86 255 170 117.65936
-0.21748985 0.037748624 -0.6132227 102 255 154 121.491844
-0.2864284 0.037748624 0.4723907 198 255 58 145.36615
0.049476422 0.038646378 0.09874493 214 255 42 149.16531
-0.34031197 -0.05978049 0.7104729 0 68 255 49.827892
-0.33540875 0.037748624 0.67395777 194 255 62 144.44202
0.093933396 0.027942173 -0.35110784 198 255 58 145.64189
0.070090644 0.038646378 0.5909311 226 255 30 152.90042
-0.3008791 -0.41177616 0.68088096 82 255 174 116.83186
-0.2139333 0.037748624 -0.01737841 218 255 38 150.99573
0.12803146 0.037748624 -0.3688043 230 255 26 153.71945
-0.3425046 0.038646378 -0.58502924 106 255 150 122.72403
-0.20545629 0.037748624 0.2576678 218 255 38 150.5609
0.3097094 0.037748624 -0.18203323 255 220 0 168.84163
-0.056788698 0.038646378 0.62425226 226 255 30 152.17682
-0.30633476 -0.32158458 -0.7164665 255 136 0 189.08769
-0.2978232 0.027942173 0.45403814 162 255 94 136.8022
-0.024865996 0.037748624 -0.64241755 66 255 190 112.11359
0.34353125 -0.48798314 0.6658778 46 255 210 107.33804
-0.30283 0.038646378 5.9081995e-05 218 255 38 150.79616
-0.3055406 -0.0019432604 0.5986485 46 255 210 107.244194
0.29368764 0.038646378 -0.16407779 255 212 0 170.16628
-0.012521634 0.027942173 -0.047799066 194 255 62 144.51643
-0.018253563 0.038646378 -0.38596556 230 255 26 153.83748
-0.06176097 0.024817238 -0.6704211 54 255 202 109.485596
-0.17928277 0.027942173 0.6193836 178 255 78 140.3497
0.3175822 -0.001839685 -0.45343655 0 248 255 94.566696
-0.317954 -0.60736954 0.7104729 214 255 42 149.76933
-0.19544268 0.037748624 0.20942985 222 255 34 151.8566
-0.076332495 0.024817238 -0.69937426 82 255 174 116.15084
0.14695372 0.038646378 -0.5967693 74 255 182 114.340355
-0.28934613 0.037748624 0.0823088 214 255 42 149.83368
0.25031835 0.027942173 -0.659527 122 255 134 126.53928
0.1877333 0.037748624 -0.59255666 74 255 182 114.405975
0.29308337 0.02050103 -0.67592865 130 255 126 128.74448
0.035163864 0.038646378 -0.19192599 250 255 6 158.03006
-0.21391605 0.037748624 0.017462045 218 255 38 150.88501
0.007885411 0.027942173 0.21252026 170 255 86 138.61993
-0.09501306 0.037748624 -0.25368232 234 255 22 154.7964
-0.3109272 0.024817238 -0.056638665 178 255 78 140.40097
0.085042 0.03600487 -0.7119258 166 255 90 137.02734
0.10045951 0.027942173 -0.48442695 122 255 134 126.16845
0.050840344 0.038646378 -0.20589323 250 255 6 158.75578
-0.19627137 0.027942173 0.2666801 178 255 78 140.61914
0.010250696 0.037748624 0.6073155 226 255 30 152.2865
0.051738117 0.027942173 -0.2528191 214 255 42 149.73549
-0.31816116 0.037748624 -0.19156341 230 255 26 153.00919
-0.048449773 0.037748624 -0.5455273 138 255 118 130.7204
0.010095311 0.027942173 -0.004395248 194 255 62 144.13304
-0.3385337 -0.39551267 -0.67187136 255 16 0 219.7986
-0.32465276 0.024817238 0.6081614 146 255 110 132.89775
0.21913804 0.038646378 0.061470132 222 255 34 151.12436
0.061320107 0.038646378 -0.03833793 230 255 26 153.76204
0.34420457 0.037748624 -0.46757647 122 255 134 126.7376
0.32341772 -0.2140764 -0.68096995 78 255 178 115.57139
0.3289252 0.037748624 0.09974629 246 255 10 157.31807
0.15299642 0.037748624 0.21536896 206 255 50 147.96616
0.3460692 0.024817238 0.60612416 154 255 102 134.42773
-0.24364612 0.038646378 -0.08591984 230 255 26 153.06023
-0.18083662 0.037748624 0.3028154 210 255 46 148.73569
0.1591427 0.037748624 0.082930334 202 255 54 146.64505
0.083039284 0.009555125 -0.7164665 162 255 94 136.99707
0.35086882 0.037748624 -0.6474071 118 255 138 125.82208
-0.10055507 0.038646378 0.24528894 214 255 42 149.6319
0.32341772 -0.019139064 0.6925347 70 255 186 113.55385
0.07863674 0.027942173 -0.52770996 94 255 162 119.11396
0.31027916 0.037748624 -0.49684042 114 255 142 124.116
0.36801282 -0.585495 0.6747174 98 255 158 120.18661
0.30673987 0.038646378 0.2947182 226 255 30 152.98863
0.21003947 0.016495576 -0.6638432 122 255 134 126.61843
0.17084828 0.027942173 -0.5521397 58 255 198 110.161156
0.11501377 0.037748624 0.21700913 206 255 50 147.57997
0.3175822 -0.001839685 -0.45343655 0 248 255 94.566696
0.17754702 0.030859932 -0.7164665 154 255 102 134.83467
0.33983657 0.0025283352 0.6892372 86 255 170 117.95028
-0.29702902 0.027942173 -0.033866335 190 255 66 143.06883
-0.05027985 0.037748624 0.6613544 222 255 34 151.35503
0.32341772 -0.1576031 -0.69274455 102 255 154 121.03081
-0.07211988 0.038646378 -0.44735935 206 255 50 147.28416
0.124146864 0.037748624 0.62395877 214 255 42 149.45668
0.3581373 -0.06447653 0.6658778 34 255 222 104.13746
0.088823006 0.027942173 -0.19784783 214 255 42 149.72258
-0.10197079 0.037748624 -0.25606486 234 255 22 154.50989
0.0051575666 0.037748624 0.6259615 226 255 30 152.1369
-0.33969045 -0.0019432604 -0.34345952 90 255 166 118.09455
0.29308337 0.015287043 -0.7076614 150 255 106 133.12643
-0.039782822 0.027942173 0.23499909 170 255 86 138.2369
0.0070049046 0.037748624 -0.043085765 226 255 30 152.33063
0.067241944 0.027942173 0.4069742 178 255 78 140.283
0.19320624 0.037748624 -0.71246105 154 255 102 134.61131
0.0079890005 0.038646378 0.33608475 206 255 50 147.90913
0.12633951 0.027942173 0.524755 194 255 62 144.30109
-0.3213379 -0.5737376 -0.67187136 0 0 216 278.82196
-0.3221321 -0.57302976 0.6658778 182 255 74 141.28078
0.013375632 0.037748624 0.104476854 214 255 42 149.29182
-0.2955615 0.024817238 0.41683242 158 255 98 135.04451
-0.31030568 0.038646378 0.47679326 202 255 54 146.64119
0.023113003 0.038646378 -0.63539076 66 255 190 112.19035
-0.15642412 0.027942173 0.68138164 178 255 78 140.81288
-0.06659512 0.027942173 -0.5609275 90 255 166 118.43228
-0.34547418 -0.13883622 -0.6878759 14 255 242 99.25891
-0.17622688 0.037748624 0.35017285 206 255 50 147.15881
-0.13211522 0.027942173 0.19475473 182 255 74 141.39908
-0.0032676775 0.037748624 0.49072596 206 255 50 147.85432
-0.2928509 0.014164821 -0.58242226 14 255 242 99.00427
-0.3008791 -0.41177616 0.68088096 82 255 174 116.83186
0.13809685 0.037748624 0.60824776 218 255 38 150.08228
-0.09143923 0.037748624 0.53271407 202 255 54 146.81308
-0.20022503 0.027942173 0.6234926 178 255 78 140.03592
0.0053474796 0.0021485074 0.7104729 54 255 202 109.233765
-0.04458245 0.037748624 0.56524104 214 255 42 149.25793
-0.13486032 0.037748624 -0.66900545 66 255 190 112.12128
0.34140766 0.037748624 0.46860972 214 255 42 149.87924
0.3310833 0.038646378 0.11547457 250 255 6 158.42676
-0.21871568 0.038646378 -0.21989504 238 255 18 155.69302
-0.017303996 0.038646378 0.24133527 206 255 50 147.7509
-0.2164885 0.037748624 0.19321817 218 255 38 150.85983
-0.27000952 0.037748624 -0.21243662 234 255 22 154.87242
-0.21636766 0.027942173 0.16165803 178 255 78 140.60605
0.3270951 -0.5621529 -0.67187136 14 255 242 99.422035
-0.34352323 -0.0017878717 -0.26908258 98 255 158 120.23603
-0.3008791 -0.21840987 -0.68592495 146 255 110 132.7416
0.15934989 0.037748624 0.28451467 214 255 42 149.49109
-0.10583811 0.037748624 -0.27049828 230 255 26 153.9996
-0.30904534 0.038646378 0.3687671 218 255 38 150.31741
-0.3008791 -0.5700084 -0.7138767 0 0 208 276.6543
0.3335349 -0.0019432604 0.5702478 70 255 186 113.884834
0.27146778 -0.0019432604 0.67913723 70 255 186 113.582
0.22476637 0.027942173 0.3384673 186 255 70 142.66653
-0.053594697 0.038646378 0.56518924 214 255 42 149.78362
0.03649326 0.027942173 -0.3598611 198 255 58 145.12877
-0.30897626 -0.6008262 -0.7164665 0 8 255 290.022
-0.34547418 0.012110319 -0.6252045 0 208 255 84.81047
0.36801282 0.017652322 -0.22907993 194 255 62 144.01495
-0.07600446 0.037748624 0.14185524 214 255 42 149.99532
-0.30619663 0.037748624 0.28496355 226 255 30 152.33781
0.20045748 0.038646378 0.012731478 238 255 18 155.81921
0.028758608 0.027942173 -0.45074323 158 255 98 135.02469
-0.1404714 0.037748624 0.008242618 218 255 38 150.11165
0.3299956 0.038646378 0.6580741 194 255 62 144.26503
0.32324505 0.037748624 0.24794771 226 255 30 152.91139
-0.15747727 0.038646378 -0.37403557 218 255 38 150.39842
0.29308337 0.015287043 -0.7076614 150 255 106 133.12643
-0.19521822 0.027942173 -0.010662386 190 255 66 143.03308
0.31785843 0.027942173 0.16638859 198 255 58 145.83414
-0.23036945 0.027942173 0.15416509 178 255 78 140.6264
0.20045748 0.038646378 0.012731478 238 255 18 155.81921
-0.2945774 -0.0017533465 -0.46749014 38 255 218 105.52484
0.32626638 0.037748624 0.16959985 242 255 14 156.36668
-0.033066798 0.038646378 0.52836335 210 255 46 148.7211
-0.34091625 0.03358778 0.20545894 190 255 66 143.75555
0.08652678 0.038646378 -0.66280735 106 255 150 122.71704
0.07986255 0.037748624 -0.34048998 238 255 18 155.09715
-0.2928509 0.016599176 -0.5124996 70 255 186 113.0078
0.31538954 0.011316138 -0.52869403 46 255 210 107.15199
-0.15690753 0.037748624 0.30288443 210 255 46 148.2411
-0.12705661 0.038646378 0.28403124 214 255 42 149.047
0.3392323 -0.0019432604 -0.13704103 162 255 94 136.40149
-0.122619554 0.038646378 0.062074397 218 255 38 150.22646
0.31228188 0.027942173 0.60579616 166 255 90 137.90175
-0.07222347 0.027942173 -0.5451647 98 255 158 120.817764
-0.34547418 0.008277515 0.40276158 98 255 158 120.374435
-0.06291772 0.038646378 -0.007243947 222 255 34 151.38078
-0.3400012 0.037748624 -0.47786635 170 255 86 138.8191
-0.1268667 0.037748624 -0.45979005 194 255 62 144.78938
0.1397025 0.037748624 -0.6292445 94 255 162 119.14919
-0.045929108 0.027942173 -0.21554428 206 255 50 147.17082
-0.22077018 0.037748624 -0.07079584 226 255 30 152.05602
0.04232878 0.024817238 -0.66765875 98 255 158 120.84484
-0.3369626 -0.0019432604 0.61007786 38 255 218 105.60973
-0.11985717 0.037748624 -0.055222947 218 255 38 150.79527
0.031003037 0.037748624 -0.6968191 122 255 134 126.51321
0.16171516 0.027942173 0.43363112 186 255 70 142.59705
0.3292014 0.027942173 -0.21214312 242 255 14 156.62796
0.32647356 0.027942173 -0.5341152 54 255 202 109.61551
-0.09644604 0.027942173 0.36738592 166 255 90 137.51189
-0.14830965 0.037748624 -0.18367338 234 255 22 154.43237
0.004156205 0.037748624 0.21094917 206 255 50 147.24362
0.043709964 0.037748624 0.11587167 210 255 46 148.19034
-0.3100985 0.037748624 0.18700282 210 255 46 148.5568
0.16142167 0.038646378 0.37235817 222 255 34 151.0701
-0.045031335 0.037748624 0.60343087 218 255 38 150.84285
0.31580392 0.027942173 -0.51065224 66 255 190 112.2593
-0.020756964 0.038646378 0.1398698 214 255 42 149.88344
-0.03560473 0.037748624 -0.26821935 238 255 18 155.80553
0.26164407 0.037748624 -0.5883613 82 255 174 116.73146
-0.06264148 0.037748624 -0.12307379 226 255 30 152.53688
0.07031509 0.027942173 -0.64000046 78 255 178 115.59518
-0.3277777 0.037748624 -0.5157799 142 255 114 131.57925
0.28650546 0.038646378 0.2703575 226 255 30 152.37498
-0.31066823 0.024817238 -0.49243787 110 255 146 123.87742
0.24254915 0.037748624 -0.26694173 254 255 1 159.50365
0.110041484 0.038646378 -0.11060856 255 252 0 160.64912
-0.34476632 -0.0011490796 -0.044087123 90 255 166 118.160095
-0.008567985 0.037748624 0.4006898 206 255 50 147.06786
-0.2664875 0.038646378 0.09660409 218 255 38 150.65952
0.3578438 0.024817238 0.019412972 214 255 42 149.6312
0.03611343 0.037748624 0.4088561 206 255 50 147.9762
-0.20459303 0.038646378 0.51543194 198 255 58 145.03642
-0.28677368 0.027942173 0.1951173 178 255 78 140.26567
0.3551505 -0.4775207 0.6658778 34 255 222 104.66372
0.019832684 0.037748624 0.17660938 206 255 50 147.7758
0.089548126 0.037748624 0.20647757 206 255 50 147.28557
-0.0997091 0.037748624 0.6806047 222 255 34 151.02539
0.18302 0.037748624 -0.7073507 150 255 106 133.86464
0.31538954 0.009054434 0.50457233 122 255 134 126.77725
0.059438236 0.037748624 0.23410131 206 255 50 147.05968
0.3027344 0.038646378 0.61561984 202 255 54 146.72849
-0.19371618 0.037748624 0.6856115 214 255 42 149.80614
0.025996234 0.038646378 0.18739991 210 255 46 148.22452
0.23534971 0.038646378 -0.43782914 174 255 82 139.60384
0.06351274 0.037748624 0.2167674 206 255 50 147.0488
0.04562636 0.037748624 -0.51956093 146 255 110 132.33405
0.062200613 0.037748624 0.037955415 226 255 30 152.911
0.32341772 -0.35879034 0.6876315 0 184 255 78.04772
-0.32130337 0.024817238 0.54429877 142 255 114 131.39279
-0.33349237 0.037748624 0.5820397 190 255 66 143.26292
-0.17878209 0.038646378 -0.11789433 230 255 26 153.52487
-0.18577434 0.038646378 0.09774357 218 255 38 150.05711
-0.047880035 0.037748624 -0.06340649 222 255 34 151.8456
0.36801282 0.021433339 -0.19244392 226 255 30 152.82527
0.070090644 0.038646378 0.5909311 226 255 30 152.90042
-0.10569999 0.037748624 0.53725475 202 255 54 146.67223
-0.09035155 0.038646378 0.16305648 222 255 34 151.22469
0.26703072 0.038646378 -0.13843949 255 216 0 169.93417
0.07986255 0.037748624 -0.34048998 238 255 18 155.09715
0.085042 0.03600487 -0.7119258 166 255 90 137.02734
0.013910841 0.037748624 0.55640143 218 255 38 150.24452
-0.22981697 0.038646378 -0.20810314 238 255 18 155.65312
0.07958631 0.038646378 0.6068838 226 255 30 152.22862
0.3427198 0.024817238 -0.22854471 222 255 34 151.22903
-0.24958521 0.037748624 0.07207075 218 255 38 150.3206
0.16245756 0.037748624 -0.66303176 130 255 126 128.65852
0.32341772 -0.5007937 0.682642 62 255 194 111.55686
0.13566251 0.037748624 -0.5641215 94 255 162 119.91549
0.06869219 0.037748624 0.019188529 234 255 22 154.15298
0.31538954 0.009054434 0.50457233 122 255 134 126.77725
0.32262352 0.037748624 -0.46037704 134 255 122 129.236
0.005640982 0.038646378 0.40131134 210 255 46 148.14781
0.19659016 0.038646378 0.28957325 218 255 38 150.88188
0.020005332 0.038646378 -0.4293176 214 255 42 149.34935
0.36193556 0.037748624 0.22648752 242 255 14 156.62064
0.19776416 -0.0019432604 0.70655376 66 255 190 112.74971
0.07601249 0.037748624 -0.58266395 94 255 162 119.22919
-0.07543473 0.027942173 0.05798263 182 255 74 141.81161
0.36801282 -0.15028282 -0.7088354 110 255 146 123.97542
-0.037590187 0.037748624 0.47413445 206 255 50 147.07794
-0.32258096 -0.6136885 0.6658778 206 255 50 147.41629
0.20739795 0.037748624 0.7009254 190 255 66 143.58858
-0.06659512 0.027942173 -0.5609275 90 255 166 118.43228
-0.06067328 0.027942173 -0.3280075 194 255 62 144.9034
-0.01785647 0.037748624 -0.40689057 222 255 34 151.68385
-0.31862733 -0.24334033 0.6658778 0 176 255 76.70904
-0.20286655 0.027942173 -0.30873993 198 255 58 145.64825
-0.13520563 0.037748624 -0.10548092 226 255 30 152.08046
-0.26270652 0.037748624 -0.6843021 54 255 202 109.035645
-0.07370824 0.037748624 -0.5956643 110 255 146 123.309746
-0.30529886 0.037748624 0.48205903 198 255 58 145.46869
-0.25032762 0.037748624 0.54908115 190 255 66 143.81386
0.26456183 0.024817238 0.695746 146 255 110 132.12578
0.10947176 0.038646378 -0.55737096 110 255 146 123.36033
-0.051419325 0.037748624 0.09681127 214 255 42 149.93932
0.3564281 -0.49214402 0.6658778 46 255 210 107.713356
0.2950861 0.037748624 -0.27187946 250 255 6 158.32198
-0.19627137 0.027942173 0.2666801 178 255 78 140.61914
0.3106417 0.037748624 -0.4570622 138 255 118 130.51303
-0.043063145 0.037748624 0.3788325 202 255 54 146.36337
-0.18862306 0.027942173 0.49186546 158 255 98 135.5473
0.30751678 0.037748624 -0.050716825 255 248 0 161.9869
0.019763626 0.038646378 -0.2236933 250 255 6 158.49677
0.32647356 0.024817238 -0.7101648 154 255 102 134.17763
-0.17696929 0.038646378 -0.22604132 238 255 18 155.53983
0.32618007 0.037748624 -0.45070872 138 255 118 130.60237
0.36350664 0.038646378 0.41579652 226 255 30 152.48537
-0.3454569 0.034416486 0.26341704 218 255 38 150.08614
0.3627643 0.037748624 -0.31462723 226 255 30 152.19302
-0.2045585 0.038646378 0.560873 202 255 54 146.10408
0.3348643 -0.0019432604 -0.07580265 154 255 102 134.0948
0.16599685 0.037748624 0.33302885 214 255 42 149.95834
-0.3057132 0.024817238 0.21172608 166 255 90 137.26949
0.06974535 0.037748624 0.04973004 222 255 34 151.73383
0.28369132 0.027942173 -0.18030675 246 255 10 157.81256
0.05719381 0.027942173 -0.48333928 130 255 126 128.58899
-0.029924596 -0.0019432604 0.6827283 50 255 206 108.05032
-0.04836345 0.038646378 -0.3631242 234 255 22 154.18335
-0.10342104 0.037748624 -0.15812142 230 255 26 153.74419
-0.31493264 0.037748624 0.069774516 210 255 46 148.26003
0.36512956 0.010366568 0.6965919 102 255 154 121.17867
-0.2691808 0.027942173 0.36648813 174 255 82 139.20517
-0.34464544 0.037679546 0.15564986 206 255 50 147.49277
0.26164407 0.037748624 -0.5883613 82 255 174 116.73146
-0.3407781 0.037748624 -0.19261658 226 255 30 152.19287
-0.34383398 0.03849099 0.57195705 190 255 66 143.3167
-0.13033694 0.027942173 0.58349 174 255 82 139.98485
-0.2030392 0.037748624 -0.5553164 138 255 118 130.16742
0.065705374 0.038646378 -0.09286031 246 255 10 157.49614
0.18196683 0.027942173 -0.41970107 158 255 98 135.38841
-0.19842948 0.037748624 0.32159954 210 255 46 148.54926
0.1431382 0.037748624 0.44172832 218 255 38 150.72852
0.32341772 -0.22265702 0.70422304 0 172 255 75.47005
-0.3119631 0.037748624 -0.31623286 222 255 34 151.86299
-0.29626936 0.037748624 0.3199939 218 255 38 150.61
0.005640982 0.038646378 0.40131134 210 255 46 148.14781
0.029587321 0.027942173 0.14815693 174 255 82 139.20158
-0.2928509 0.0038059193 0.053372923 106 255 150 122.27534
0.32455716 -0.2314276 -0.7159658 90 255 166 118.79106
0.16504729 0.037748624 -0.33881527 234 255 22 154.70943
0.14526178 0.037748624 -0.028168937 250 255 6 158.92772
0.038116153 0.037748624 -0.45191726 194 255 62 144.65857
-0.31999126 0.038646378 -0.17585242 230 255 26 153.56508
0.3462073 -0.41490108 0.7104729 0 240 255 92.632454
0.3097094 0.037748624 -0.18203323 255 220 0 168.84163
-0.3319558 -0.0019432604 -0.4770894 30 255 226 103.70883
0.062200613 0.037748624 0.037955415 226 255 30 152.911
0.3551505 -0.4775207 0.6658778 34 255 222 104.66372
0.04631696 0.037748624 -0.22077553 246 255 10 157.88487
0.3176685 -0.0018569477 0.11973898 90 255 166 118.703316
-0.30353785 -0.0019432604 -0.6595788 0 208 255 84.1765
-0.12852412 0.037748624 0.38332134 198 255 58 145.29742
-0.12876584 0.038646378 -0.093844414 226 255 30 152.42195
0.34686336 0.027942173 -0.60545355 94 255 162 119.15531
0.31005472 0.027942173 0.57161176 174 255 82 139.61795
-0.2191473 0.027942173 0.4465625 162 255 94 136.09009
-0.31322342 0.027942173 0.42004368 170 255 86 138.36879
-0.31978408 0.038646378 0.3053188 226 255 30 152.76733
-0.29689088 0.037748624 -0.32386392 226 255 30 152.15338
0.045419186 0.037748624 -0.3519193 234 255 22 154.62593
-0.301984 0.037748624 -0.09859224 226 255 30 152.15077
0.35262984 0.027942173 0.53368086 178 255 78 140.3845
-0.26389778 0.037748624 -0.59184885 110 255 146 123.213455
-0.05067694 0.037748624 -0.22804402 242 255 14 156.10678
0.29505157 0.027942173 0.43028173 190 255 66 143.44467
-0.2654516 0.027942173 0.56320375 162 255 94 136.00558
-0.094771355 0.027942173 -0.20301001 210 255 46 148.10834
-0.0022490511 0.037748624 0.6014972 222 255 34 151.75377
0.31005472 0.027942173 0.57161176 174 255 82 139.61795
0.31538954 0.0006982463 0.6255644 74 255 182 114.098206
-0.34091625 0.03320795 0.3716158 198 255 58 145.42941
-0.23178516 0.027942173 0.00019720079 190 255 66 143.23694
-0.34362683 -0.20867251 -0.7163284 178 255 78 140.9909
-0.12974994 0.027942173 -0.61068475 62 255 194 111.32782
0.2235751 0.038646378 0.6278779 210 255 46 148.20439
0.18616219 0.037748624 -0.6230464 106 255 150 122.868065
-0.058566973 0.027942173 -0.33627734 194 255 62 144.7494
-0.21198238 0.038646378 0.6864575 218 255 38 150.20518
-0.31534702 -0.09294626 -0.67187136 0 244 255 93.92714
0.21407945 0.038646378 -0.29924425 246 255 10 157.94731
-0.036485236 0.037748624 0.04698493 218 255 38 150.1787
0.1393572 0.038646378 0.44935942 222 255 34 151.4986
-0.30939063 -0.0019432604 -0.4261236 66 255 190 112.81262
-0.2213054 0.027942173 0.70187503 166 255 90 137.6067
-0.34435195 -0.225523 -0.7159658 238 255 18 155.17642
-0.27757153 0.038646378 -0.57637954 122 255 134 126.07993
-0.16386525 0.038646378 -0.6486674 82 255 174 116.8352
0.29308337 0.022054868 -0.71225387 154 255 102 134.1729
-0.26206768 0.037748624 0.3723927 210 255 46 148.37584
0.18997772 0.037748624 0.67192054 198 255 58 145.5833
-0.097153895 0.037748624 0.66902 222 255 34 151.4179
0.30908787 0.037748624 -0.1684458 255 216 0 169.69814
0.26936147 0.037748624 0.69215494 190 255 66 143.15367
0.36801282 0.014665512 0.29002213 150 255 106 133.48161
0.35775748 0.022641871 0.63556075 142 255 114 131.28976
0.29834914 0.038646378 0.5492883 218 255 38 150.06036
0.34515414 0.024817238 0.6480778 146 255 110 132.84628
-0.27665648 0.027942173 -0.11432051 198 255 58 145.76094
-0.24986146 0.037748624 0.10432147 214 255 42 149.43355
-0.32458368 0.038646378 0.04292769 214 255 42 149.02016
-0.30939063 -0.0019432604 -0.4261236 66 255 190 112.81262
-0.25725082 0.027942173 -0.2780603 202 255 54 146.88228
0.3176685 -0.0018569477 0.11973898 90 255 166 118.703316
0.36428356 -0.28802174 0.7104729 0 160 255 72.067924
0.08652678 0.038646378 -0.66280735 106 255 150 122.71704
0.34140766 0.037748624 0.46860972 214 255 42 149.87924
0.31566578 0.023522392 0.4287797 174 255 82 139.44221
-0.0037683577 0.038646378 0.015528384 222 255 34 151.88892
0.31538954 0.019914027 0.622802 138 255 118 130.23384
-0.049554724 0.027942173 -0.12953083 202 255 54 146.13518
-0.13132103 0.038646378 -0.33872896 226 255 30 152.18102
-0.095427416 0.037748624 -0.53325194 146 255 110 132.89252
-0.2604966 0.037748624 0.050023545 218 255 38 150.38914
0.11879476 0.037748624 -0.012181693 242 255 14 156.38155
0.16171516 0.027942173 0.43363112 186 255 70 142.59705
0.28338054 0.027942173 -0.04885222 230 255 26 153.52487
0.26440647 0.027942173 0.044654176 202 255 54 146.55516
-0.054596063 0.037748624 0.3601865 202 255 54 146.202
0.1405312 0.037748624 -0.40272972 218 255 38 150.0709
0.2097287 0.038646378 -0.021487445 255 252 0 160.15137
0.33968118 0.038646378 -0.49302486 110 255 146 123.775764
-0.34091625 0.033018038 0.17305283 190 255 66 143.59332
0.22585407 0.037748624 -0.3745708 214 255 42 149.50209
0.09217238 0.038646378 0.5184533 222 255 34 151.38193
0.2581566 0.038646378 0.24917354 222 255 34 151.69543
0.052048884 0.037748624 -0.37350035 230 255 26 153.35779
0.34411824 -0.16989566 -0.67187136 86 255 170 117.2706
-0.0918018 0.037748624 0.55615973 206 255 50 147.78404
0.07986255 0.037748624 -0.34048998 238 255 18 155.09715
0.36801282 -0.107241556 -0.712392 126 255 130 127.47169
0.07233508 0.037748624 0.14525642 206 255 50 147.60298
0.32472983 0.037748624 -0.49407804 110 255 146 123.66682
0.106191434 0.038646378 -0.47929934 166 255 90 137.95683
0.06874399 0.038646378 0.34727237 210 255 46 148.94203
-0.08579363 0.038646378 0.17315641 222 255 34 151.06232
-0.1678707 0.038646378 0.020379804 218 255 38 150.8174
0.062338732 0.024817238 0.70154697 154 255 102 134.1318
0.29872897 0.027942173 0.6255126 166 255 90 137.32637
0.33538222 -0.0019432604 -0.010265294 138 255 118 130.2313
-0.13237418 0.037748624 -0.645508 82 255 174 116.21881
-0.09035155 0.038646378 0.16305648 222 255 34 151.22469
-0.34091625 0.034502823 -0.27130973 214 255 42 149.56615
0.21490815 0.037748624 -0.19601776 255 240 0 163.76364
-0.019738339 0.027942173 -0.35102153 198 255 58 145.4564
0.025046669 0.037748624 -0.46892315 186 255 70 142.23782
0.23032567 0.037748624 0.6507711 202 255 54 146.03815
-0.26852474 -0.0019432604 0.68770057 42 255 214 106.06224
0.20900357 0.037748624 0.57706743 218 255 38 150.36888
-0.29450834 0.038646378 -0.444079 194 255 62 144.29489
0.13329723 0.027942173 0.53841144 194 255 62 144.274
-0.34136513 0.027942173 0.26944247 190 255 66 143.94366
-0.3008791 -0.014149514 0.6688301 0 244 255 93.77478
-0.17282571 0.038646378 -0.0572602 226 255 30 152.1047
0.3105554 0.038646378 0.11209066 242 255 14 156.40225
0.23793946 0.027942173 0.21694006 186 255 70 142.03236
-0.33461457 -0.61213464 -0.7164665 0 52 255 301.48856
-0.008913282 0.037748624 -0.3895221 226 255 30 152.76411
0.31407744 0.025801333 0.6428465 154 255 102 134.41226
-0.051333006 0.037748624 -0.49804893 170 255 86 138.16484
0.12842855 0.027942173 -0.2399913 218 255 38 150.3471
-0.24986146 0.037748624 0.10432147 214 255 42 149.43355
-0.26911178 0.037748624 0.68372965 206 255 50 147.18039
-0.0037683577 0.038646378 0.015528384 222 255 34 151.88892
-0.06176097 0.024817238 -0.6704211 54 255 202 109.485596
-0.33905166 -0.0019432604 -0.64196867 0 176 255 76.0676
-0.26270652 0.037748624 -0.6843021 54 255 202 109.035645
-0.05027985 0.037748624 0.6613544 222 255 34 151.35503
-0.24007228 0.037748624 -0.23902448 238 255 18 155.25043
-0.036485236 0.037748624 0.04698493 218 255 38 150.1787
0.29308337 0.016806353 0.6792753 118 255 138 125.84117
-0.30545425 0.027942173 -0.07428334 190 255 66 143.58716
0.1876297 0.037748624 0.29678997 218 255 38 150.01157
0.2744028 0.037748624 -0.26808122 254 255 1 159.27803
0.18649022 0.037748624 0.103976175 206 255 50 147.4192
0.26456183 0.024817238 0.695746 146 255 110 132.12578
-0.32363412 0.037748624 0.5146723 194 255 62 144.1997
-0.04665423 0.038646378 -0.14386065 230 255 26 153.68279
0.32341772 -0.6016031 -0.6841122 26 255 230 102.54737
0.36801282 -0.5429544 0.6895652 82 255 174 116.776825
0.19068557 0.024817238 -0.70838654 150 255 106 133.29121
0.3377475 0.024817238 0.32655457 182 255 74 141.57414
0.09624688 0.037748624 -0.58109283 90 255 166 118.736626
0.36474973 0.037748624 0.18776247 250 255 6 158.3634
0.3114359 0.027942173 0.075057566 206 255 50 147.61447
0.3392323 -0.0019432604 -0.13704103 162 255 94 136.40149
-0.29716715 0.027942173 -0.6460777 30 255 226 103.355225
-0.063038565 0.037748624 0.5552102 210 255 46 148.41113
-0.3451634 -0.1279421 0.7090054 0 92 255 55.380783
0.16775787 0.038646378 -0.04132475 255 248 0 161.8432
0.008489681 0.037455108 -0.7158795 134 255 122 129.56627
-0.3079922 -0.46307 0.7104729 126 255 130 127.62843
-0.07376003 0.037748624 0.06304123 214 255 42 149.3523
0.23462461 0.037748624 0.39701238 222 255 34 151.9754
0.3576021 -0.0063975938 0.6962467 86 255 170 117.65936
0.36136582 -0.58195573 -0.67187136 2 255 254 96.33923
-0.061743703 0.037748624 -0.31288347 234 255 22 154.27625
0.28327695 0.037748624 -0.4525561 150 255 106 133.02576
0.36801282 -0.15870805 0.6942094 0 220 255 87.593735
-0.033343036 0.037748624 0.6863539 218 255 38 150.34778
-0.2760695 0.038646378 -0.37662527 218 255 38 150.19946
0.10317009 0.027942173 0.66551524 174 255 82 139.15808
0.21855102 0.037748624 -0.2935814 246 255 10 157.4793
0.34044084 0.027942173 0.5985449 166 255 90 137.54207
0.32459173 -0.40146905 -0.67233753 22 255 234 101.444084
0.048664976 0.037748624 0.4388451 210 255 46 148.46378
0.3096231 0.038646378 0.60583067 206 255 50 147.0097
0.07986255 0.037748624 -0.34048998 238 255 18 155.09715
-0.032807823 0.037748624 -0.28933424 238 255 18 155.42586
0.14583151 0.027942173 -0.3665944 198 255 58 145.47243
0.26592577 0.027942173 0.22370788 186 255 70 142.46613
0.044279706 0.037748624 0.4743416 210 255 46 148.62985
0.29883257 0.027942173 -0.5129312 66 255 190 112.78019
-0.13646595 -0.0019432604 -0.6767228 38 255 218 105.50907
0.36801282 0.031826764 -0.026097156 246 255 10 157.96555
-0.23375335 0.037748624 -0.38719139 206 255 50 147.78432
0.120141424 0.027942173 -0.30542508 210 255 46 148.34416
-0.12192896 0.037748624 0.39787564 198 255 58 145.175
-0.07324209 0.037748624 -0.5501025 138 255 118 130.167
-0.08653602 0.037748624 -0.5063188 166 255 90 137.10628
-0.011675657 0.037748624 0.063507386 222 255 34 151.17862
-0.29450834 0.038646378 -0.444079 194 255 62 144.29489
-0.25308996 0.037748624 -0.13925093 234 255 22 154.13509
0.26069453 0.024817238 0.66542894 150 255 106 133.65108
-0.1139008 0.037748624 -0.65562516 70 255 186 113.70886
-0.11507481 0.037748624 0.3599793 198 255 58 145.48961
-0.07828342 0.027942173 0.09613794 182 255 74 141.23654
0.1715734 0.027942173 0.17591879 178 255 78 140.29257
-0.27629393 0.038646378 0.39103875 210 255 46 148.87567
0.020005332 0.038646378 -0.4293176 214 255 42 149.34935
0.19237754 0.037748624 -0.4570622 166 255 90 137.25319
0.28446823 0.038646378 -0.49136743 126 255 130 127.46263
-0.26783416 0.027942173 -0.0996454 198 255 58 145.57976
0.18963242 0.038646378 0.51225525 226 255 30 152.59966
0.3096749 0.038646378 0.47815716 218 255 38 150.92255
-0.15872033 0.038646378 -0.30618474 226 255 30 152.34499
-0.3454569 0.031205235 -0.2127819 202 255 54 146.88367
-0.3008791 -0.0047056307 -0.6922784 0 240 255 92.91537
0.36583742 0.037748624 -0.34301063 210 255 46 148.56604
0.14900824 0.00081910996 -0.6638432 126 255 130 127.2747
-0.09413256 0.024817238 -0.6774997 46 255 210 107.659256
-0.2644675 0.038646378 -0.32740322 230 255 26 153.87198
0.06869219 0.037748624 0.019188529 234 255 22 154.15298
-0.34091625 0.030600969 -0.14508645 202 255 54 146.16628
-0.036485236 0.037748624 0.04698493 218 255 38 150.1787
-0.12636602 0.038646378 -0.48356372 182 255 74 141.92636
-0.3294351 0.0023556838 0.6658778 54 255 202 109.63809
-0.2723748 0.037748624 -0.38998827 210 255 46 148.24783
0.23125795 -0.0019432604 -0.68371505 130 255 126 128.37405
-0.34547418 -0.30003807 0.68331534 0 244 255 93.03217
-0.19102286 0.038646378 -0.2370563 238 255 18 155.69525
0.26706523 0.027942173 0.011557469 214 255 42 149.44476
-0.30607578 0.024817238 0.2585656 182 255 74 141.08339
-0.04948567 0.037748624 0.29050556 202 255 54 146.41974
0.19237754 0.037748624 -0.4570622 166 255 90 137.25319
0.2694478 0.037748624 0.53366363 218 255 38 150.42891
-0.009103196 0.038646378 0.34207565 206 255 50 147.75742
-0.0054603126 0.037748624 0.43746394 206 255 50 147.40695
0.36310956 -0.0019432604 0.5348722 74 255 182 114.86559
-0.04665423 0.038646378 -0.14386065 230 255 26 153.68279
0.013651869 0.037748624 0.53167814 214 255 42 149.20578
-0.07424345 0.037748624 0.26407307 206 255 50 147.76872
-0.13770902 0.027942173 0.3890533 166 255 90 137.1064
0.25175133 0.024817238 0.6709191 150 255 106 133.50604
0.34978113 0.027942173 -0.11494204 250 255 6 158.9324
-0.22470659 -0.0019432604 -0.6729245 0 252 255 95.311676
-0.027783755 0.037748624 -0.5681614 122 255 134 126.44149
-0.12279221 0.037748624 -0.18731627 234 255 22 154.75755
-0.019185863 0.027942173 0.21284829 170 255 86 138.42387
0.35775748 0.022641871 0.63556075 142 255 114 131.28976
0.27766588 0.027942173 -0.5540388 62 255 194 111.66241
-0.29077914 0.027942173 -0.37305146 182 255 74 141.94507
0.028482372 0.037748624 -0.5860478 98 255 158 120.419365
-0.31705624 -0.18426001 -0.67187136 34 255 222 104.70061
-0.1427331 0.038646378 0.2875878 214 255 42 149.2648
-0.21918182 0.037748624 0.21174334 226 255 30 152.53351
-0.31653827 0.024817238 -0.095743544 182 255 74 141.46121
0.11651581 0.037748624 -0.13876753 255 252 0 160.08322
0.088961124 0.037748624 -0.06404529 242 255 14 156.4559
-0.06609444 0.037748624 0.0724851 214 255 42 149.31001
0.36008823 0.027942173 -0.09774627 250 255 6 158.53513
-0.29247108 0.037748624 -0.65141255 70 255 186 113.011215
0.29872897 0.027942173 0.6255126 166 255 90 137.32637
0.36008823 0.027942173 -0.09774627 250 255 6 158.53513
0.057521842 0.038646378 0.32344687 210 255 46 148.71617
0.21307808 0.038646378 -0.5221334 114 255 142 124.74773
0.094295956 0.037748624 0.11526739 206 255 50 147.51033
0.23547058 0.027942173 -0.49773815 86 255 170 117.85517
-0.100399695 0.037748624 -0.53967446 142 255 114 131.90834
-0.256025 0.037748624 -0.62002504 94 255 162 119.16599
0.25330517 0.027942173 -0.63545984 110 255 146 123.011284
0.23322617 0.037748624 -0.17588694 255 232 0 165.42203
-0.30457374 -0.0019432604 0.37118417 62 255 194 111.3309
-0.054734174 0.038646378 0.04738202 218 255 38 150.59413
0.04704208 0.037748624 -0.24109624 246 255 10 157.98439
0.35767114 0.024817238 -0.62422043 102 255 154 121.80296
0.34004375 0.037748624 -0.0360935 255 244 0 162.05377
0.14227495 0.038646378 0.67411315 206 255 50 147.07828
0.062200613 0.037748624 0.037955415 226 255 30 152.911
-0.24297278 -0.0019432604 0.6919132 42 255 214 106.29824
-0.27140796 -0.0010455042 0.65771157 50 255 206 108.86868
-0.2659523 0.037748624 -0.14239314 234 255 22 154.3433
-0.27902177 0.037748624 -0.6689364 58 255 198 110.80527
-0.1336 0.037748624 -0.17336626 234 255 22 154.41377
0.32835543 0.037748624 -0.47948924 118 255 138 125.79665
-0.24986146 0.037748624 0.10432147 214 255 42 149.43355
-0.3008791 -0.35908383 -0.68858373 255 104 0 197.82555
-0.005028692 0.037748624 -0.29556683 238 255 18 155.89308
-0.3454569 0.036712714 -0.29163045 218 255 38 150.61295
0.3233659 0.011609627 0.7104729 98 255 158 120.55467
-0.11559276 0.038646378 -0.070674986 222 255 34 151.86198
0.28360495 0.024817238 -0.71290994 154 255 102 134.37543
0.3406998 0.0037886568 -0.6415543 110 255 146 123.14285
-0.054975882 0.037748624 0.14630958 214 255 42 149.53459
0.36789194 -0.12782125 0.708522 0 248 255 94.81693
0.36801282 -0.29684407 -0.68953335 58 255 198 110.6945
0.36801282 0.009572388 -0.5070957 34 255 222 104.705505
0.36801282 -0.29684407 -0.68953335 58 255 198 110.6945
0.33855897 0.024817238 0.41294786 178 255 78 140.83246
-0.28625575 0.027942173 -0.2500567 202 255 54 146.56163
-0.14898297 0.028183876 0.70893633 170 255 86 138.07498
0.07863674 0.027942173 -0.52770996 94 255 162 119.11396
-0.29488817 0.037748624 0.5680207 190 255 66 143.57213
0.12571797 0.037748624 0.40229544 214 255 42 149.94597
-0.053732816 0.037748624 0.5905858 218 255 38 150.10457
-0.056788698 0.038646378 0.62425226 226 255 30 152.17682
-0.30529886 0.037748624 0.48205903 198 255 58 145.46869
-0.06360831 0.037748624 0.3867398 202 255 54 146.04652
0.07233508 0.037748624 0.14525642 206 255 50 147.60298
0.13631858 0.037748624 -0.45961738 174 255 82 139.2712
0.33735043 -0.19071707 0.7104729 0 196 255 81.338684
-0.34302256 -0.37348273 0.6658951 66 255 190 112.04447
-0.23143986 0.027942173 -0.49501032 130 255 126 128.85768
0.31538954 0.014993553 -0.12673393 210 255 46 148.89194
0.31538954 0.014302948 -0.29984853 142 255 114 131.03171
-0.2735143 0.027942173 -0.2116597 202 255 54 146.8968
0.30969214 0.037748624 -0.19070017 255 220 0 168.27582
-0.008360808 0.037748624 0.69288 214 255 42 149.3314
-0.09143923 0.037748624 0.53271407 202 255 54 146.81308
0.33356944 -0.39559898 -0.7164665 42 255 214 106.73539
-0.21341538 0.027942173 0.264263 182 255 74 141.0426
0.031866282 0.027942173 0.6409992 186 255 70 142.3358
-0.036312588 0.038646378 0.09069951 222 255 34 151.2624
0.2320176 0.027942173 0.55379444 186 255 70 142.64952
0.337126 0.037748624 0.5955236 202 255 54 146.04018
0.018451497 0.037748624 -0.501968 166 255 90 137.03667
0.298211 0.038646378 0.624563 202 255 54 146.42213
0.043485522 0.027942173 -0.4901762 130 255 126 128.04271
-0.034879606 0.038646378 -0.3403346 238 255 18 155.13998
0.23388222 0.027942173 0.36754128 190 255 66 143.19461
0.32341772 -0.20913866 -0.70365596 90 255 166 118.62793
-0.1275055 0.038646378 -0.4750349 190 255 66 143.2894
0.19237754 0.037748624 -0.4570622 166 255 90 137.25319
-0.21729997 0.037748624 0.032983143 218 255 38 150.74278
0.065705374 0.038646378 -0.09286031 246 255 10 157.49614
-0.28934613 0.037748624 0.0823088 214 255 42 149.83368
0.067552716 0.038646378 0.2675088 206 255 50 147.95412
-0.28228483 0.027942173 -0.4559745 146 255 110 132.88966
-0.29837567 0.037748624 0.258462 230 255 26 153.17908
0.28013474 0.029323358 0.70593226 158 255 98 135.29636
-0.16376168 0.037748624 -0.5368603 146 255 110 132.81451
-0.3169699 0.024817238 -0.3351206 178 255 78 140.70746
0.009042156 0.038646378 -0.42766017 214 255 42 149.79753
-0.09402896 0.027942173 -0.1417198 202 255 54 146.1547
-0.25845936 0.037748624 -0.10917559 230 255 26 153.29344
0.34563756 0.0025283352 -0.6790881 130 255 126 128.59514
0.0831774 0.027942173 0.26635206 174 255 82 139.65785
0.23125795 -0.0019432604 -0.68371505 130 255 126 128.37405
-0.29702902 0.027942173 -0.033866335 190 255 66 143.06883
0.19284368 0.037748624 -0.0019609048 242 255 14 156.67842
-0.15526737 0.038646378 -0.5157799 166 255 90 137.01843
0.12507917 0.027942173 0.20663296 174 255 82 139.90733
-0.34547418 0.021519652 0.07500577 150 255 106 133.75291
-0.25238213 0.037748624 -0.5376027 146 255 110 132.28668
0.10315283 0.027942173 -0.5914863 42 255 214 106.27419
0.06869219 0.037748624 0.019188529 234 255 22 154.15298
0.08069126 0.027942173 -0.07053687 202 255 54 146.8605
-0.2698887 0.038646378 0.29349238 222 255 34 151.70972
0.010095311 0.027942173 -0.004395248 194 255 62 144.13304
0.3462073 -0.41490108 0.7104729 0 240 255 92.632454
-0.12852412 0.037748624 0.38332134 198 255 58 145.29742
0.0970238 0.037748624 -0.31839097 242 255 14 156.67137
-0.27054474 0.00045654466 -0.69403946 2 255 254 96.14554
-0.33233562 0.037748624 -0.48556644 166 255 90 137.24059
-0.0801135 0.037748624 -0.18370792 234 255 22 154.78029
-0.29967052 0.037748624 0.6864575 198 255 58 145.82243
0.29872897 0.027942173 0.6255126 166 255 90 137.32637
-0.26685005 0.027942173 -0.44882688 154 255 102 134.00337
-0.26956064 0.037748624 0.40920135 206 255 50 147.20581
0.026427854 0.038646378 0.54690576 218 255 38 150.87474
-0.28924257 0.037748624 -0.082156114 226 255 30 152.04407
-0.3005683 0.037748624 -0.060402405 222 255 34 151.10616
0.2719339 0.037748624 -0.6451972 118 255 138 125.06509
-0.3331816 0.024817238 -0.07041602 178 255 78 140.05219
-0.32130337 0.024817238 0.54429877 142 255 114 131.39279
-0.07445063 0.027942173 0.550963 174 255 82 139.92154
-0.23061116 0.038646378 0.67373335 214 255 42 149.86998
0.19883458 0.027942173 -0.5097372 82 255 174 116.70758
-0.102436945 0.038646378 -0.04514028 222 255 34 151.41887
0.35035086 0.037748624 0.36992386 226 255 30 152.05319
-0.3008791 -0.3826849 -0.7005828 255 60 0 208.27975
-0.118113436 0.037748624 0.16531818 218 255 38 150.99147
0.13089742 0.027942173 0.6148084 182 255 74 141.48991
-0.32682812 -0.23909317 -0.67187136 226 255 30 152.0013
0.28655726 0.038646378 -0.18424313 255 220 0 168.50977
-0.23116364 0.027942173 0.07756096 182 255 74 141.40086
0.13809685 0.037748624 0.60824776 218 255 38 150.08228
0.32341772 -0.17619735 0.69443387 0 200 255 82.824066
0.22162418 0.037748624 -0.36003378 218 255 38 150.92422
-0.15816787 0.037748624 -0.047868125 222 255 34 151.1112
0.010250696 0.037748624 0.6073155 226 255 30 152.2865
-0.2745329 0.037748624 -0.29772493 230 255 26 153.65689
-0.25845936 0.037748624 -0.10917559 230 255 26 153.29344
0.36136582 -0.58195573 -0.67187136 2 255 254 96.33923
-0.13473947 0.037748624 -0.22721532 238 255 18 155.29158
0.02088584 0.037748624 0.21431582 202 255 54 146.93636
-0.07600446 0.037748624 0.14185524 214 255 42 149.99532
-0.09499579 0.027942173 -0.25647923 202 255 54 146.45125
-0.04948567 0.037748624 0.29050556 202 255 54 146.41974
-0.3294351 0.0023556838 0.6658778 54 255 202 109.63809
