ply
format ascii 1.0
element vertex 869
property float x
property float y
property float z
property uchar red
property uchar green
property uchar blue
property float weight
end_header
-0.012799411 -0.07146229 -0.22872737 0 176 255 76.23698
-0.63590884 0.29856107 -0.066780135 255 104 0 453.8481
0.7353964 -0.03259579 0.19842403 14 255 242 99.23069
-0.9772204 -0.01942214 -0.054028712 230 255 26 153.27711
-0.58312976 -0.08778157 0.30041426 0 44 255 43.892067
0.6092967 -0.23581624 0.29367968 0 92 255 55.403294
0.24199674 0.04254046 -0.17096597 255 212 0 170.98305
-0.9631179 0.10372194 -0.09574527 230 255 26 153.61642
0.5348149 0.039669283 -0.026372496 255 224 0 167.42601
0.83240426 -0.14203842 0.15940975 0 180 255 77.46676
0.788091 -0.07319344 0.051550493 0 244 255 93.807755
-0.25133958 -0.01876768 0.023915384 46 255 210 107.21759
-0.080546595 0.30341676 -0.0024741413 252 0 0 480.02524
0.20021683 0.025271157 -0.3453057 186 255 70 142.25302
0.5428584 -0.021427747 -0.11134676 90 255 166 118.848434
0.71014684 -0.12726028 0.3755083 0 196 255 81.42632
-0.47974622 -0.22418372 0.2666779 0 20 255 37.048687
-0.5407376 -0.1307226 -0.08738508 0 216 255 86.20674
-0.10623944 0.048071705 -0.27430734 255 240 0 163.36111
-0.49908444 -0.108534284 -0.23354082 0 216 255 86.31462
0.03436395 -0.039288174 0.27054134 0 216 255 86.946
-0.7036349 0.20148985 0.28998512 0 216 255 342.31735
0.6092967 -0.23581624 0.29367968 0 92 255 55.403294
-0.78341573 0.16756347 0.3058611 0 0 240 284.4502
0.46238092 0.14246175 -0.20339343 0 0 160 264.87198
-0.09198909 -0.0040528816 0.10724294 82 255 174 116.17467
0.12075269 0.051745128 0.35260218 255 248 0 161.32274
0.7106747 -0.18200271 -0.10862337 0 120 255 62.501766
0.090985306 -0.022757776 -0.26620048 42 255 214 106.3188
-0.41280127 0.10146299 -0.06572455 255 100 0 198.85162
0.849378 -0.061307594 0.19320945 14 255 242 99.22454
-0.07786542 -0.19053182 0.2152711 0 0 212 21.890215
0.04597534 -0.07165229 -0.34950694 0 100 255 57.243774
0.5876151 -0.15595098 -0.11278235 0 112 255 60.394466
-0.34591967 -0.020963289 -0.12420374 34 255 222 104.41585
-0.18097456 -0.041779347 -0.045879632 0 248 255 94.801254
0.7578591 -0.07471347 0.08102231 0 224 255 88.40902
-0.55203235 -0.02423559 0.28876066 0 216 255 86.33283
0.46664548 0.11860563 -0.33610103 188 0 0 240.14575
-0.9262781 0.14985082 0.09588489 255 80 0 203.41045
0.7145592 -0.21861026 0.3184225 0 112 255 60.546318
-0.40237212 -0.08201809 -0.26043704 0 116 255 61.040417
-0.4503166 -0.109505415 -0.021136813 0 96 255 56.275436
0.6246449 -0.017099861 -0.2770096 114 255 142 124.72176
-0.56465715 -0.16175666 -0.33227983 90 255 166 118.49907
0.8027002 -0.18512723 -0.14290865 0 156 255 71.67518
-0.50432014 -0.00287063 0.26646677 38 255 218 105.50791
0.54005057 -0.06200428 -0.17683502 0 212 255 85.56531
-0.8324791 -0.014439799 -0.27808633 186 255 70 142.28238
-0.20489404 0.11995677 -0.33504546 232 0 0 229.77142
-0.7036349 0.20148985 0.28998512 0 216 255 342.31735
0.6325617 -0.1143822 -0.25556025 0 172 255 75.23119
-0.5274796 -0.0542352 -0.14751096 0 164 255 73.66264
0.08277289 0.28925085 -0.10152986 255 52 0 466.65445
0.2906379 0.19188407 -0.11905251 0 164 255 329.7522
-0.54001987 -0.23207948 -0.2609859 102 255 154 121.843315
0.5106632 -0.08993495 0.040614676 0 120 255 62.83269
0.6529344 -0.17457142 -0.31498945 0 128 255 64.13767
0.09324425 -0.10049076 0.27816263 0 68 255 49.97432
0.3976316 -0.08845714 0.024168722 0 152 255 70.509224
0.007509966 -0.19010958 0.22905698 0 0 196 17.7988
-0.2689467 0.18092714 0.30098426 0 52 255 301.65817
-0.03025872 -0.0043484448 0.0016426243 94 255 162 119.02812
-0.12914555 0.090611614 0.11057858 255 88 0 201.96637
-0.5023145 -0.06945668 0.07416103 0 76 255 51.157444
0.06949368 -0.04479831 0.13633475 0 244 255 93.62124
0.71517146 -0.12844254 -0.32877532 0 220 255 87.82976
0.096706554 0.28384626 0.021487545 255 100 0 454.31143
-0.4792184 0.16308782 0.056617282 0 0 188 271.2915
0.6226181 0.1374372 -0.14075525 0 0 152 262.59695
0.69701546 0.013110865 -0.25161237 214 255 42 149.75037
0.4982918 -0.09278502 0.004091572 0 124 255 63.429382
0.74933004 -0.07389012 -0.19304873 6 255 250 97.374565
-0.45227998 0.22861828 -0.14371087 10 255 246 354.2297
0.8640717 0.016742064 0.11663762 170 255 86 138.1873
0.1545524 -0.129287 0.0032893305 0 100 255 57.013805
0.5248713 0.0008661266 -0.09253631 162 255 94 136.61987
-0.49800774 0.24212973 -0.2609437 50 255 206 364.06354
0.07080261 -0.029893504 -0.2591281 18 255 238 100.334366
-0.06889298 -0.075093485 -0.3522092 0 112 255 60.071728
0.5215779 0.12113902 0.34082192 184 0 0 241.0822
0.5017541 -0.08666265 -0.30316693 0 172 255 75.071686
0.56071883 0.039669283 0.031367783 255 192 0 175.18207
0.28852674 -0.14075062 -0.005936447 0 64 255 48.678913
0.66384906 0.028733464 -0.1244993 246 255 10 157.27576
-0.61555725 -0.07680352 -0.02487357 0 216 255 86.408165
0.27923763 -0.04241269 -0.3453057 0 172 255 75.96302
-0.076662056 -0.19091181 0.20321636 0 0 216 22.579058
-0.07955436 -0.008275204 0.07745445 70 255 186 113.470474
-0.52707845 0.29706216 0.22916254 255 88 0 457.31104
-0.09798479 -0.0029128536 -0.24415997 114 255 142 124.85951
-0.6229885 0.2599057 -0.25142238 90 255 166 374.67023
-0.9304371 0.1467052 -0.09481637 255 108 0 196.97574
0.29131347 0.06797997 -0.3487258 255 172 0 180.20937
-0.49268764 0.0062073655 0.3070222 70 255 186 113.86237
0.58560944 0.0056795753 0.038355734 174 255 82 139.17683
0.13398968 -0.0500551 0.054463897 0 252 255 95.07987
-0.039252274 -0.017775435 0.071057625 50 255 206 108.45754
0.76959723 0.091941655 0.34555092 255 44 0 212.20654
0.5882062 0.013195312 0.2861217 178 255 78 140.6449
-0.47275826 0.22289704 0.27311695 42 255 214 362.94897
-0.50214565 -0.07313011 -0.35514373 0 224 255 88.43984
-0.10860395 -0.06726107 0.3533411 0 128 255 64.80583
-0.55769026 -0.060674243 -0.28378648 0 244 255 93.50945
-0.48966867 -0.036564775 0.128249 0 188 255 79.85018
-0.006867047 0.043743826 0.28369388 222 255 34 151.29478
-0.4873675 0.23298839 -0.1464765 18 255 238 356.08984
-0.49412322 0.036101416 -0.27439177 194 255 62 144.48633
-0.5287252 -0.12115903 -0.068236835 0 192 255 80.098526
0.10698792 -0.012286413 -0.00950431 86 255 170 117.15472
0.41612536 0.14277843 -0.24274549 0 0 160 264.94214
-0.80558294 0.19676085 0.29023847 0 148 255 325.22314
-0.5107381 0.09177276 -0.3453057 255 140 0 188.00026
0.83892775 -0.17081356 0.12981126 0 148 255 69.56688
0.29382575 -0.09318614 0.37375605 0 124 255 63.10574
0.60606664 -0.08417148 0.18413147 0 168 255 74.41689
0.1434899 -0.1461763 -0.043852914 0 64 255 48.807835
-0.7202287 0.09472839 0.35260218 255 92 0 200.4733
0.5994376 0.13847166 -0.14007968 0 0 156 263.3518
-0.8368493 0.04902173 0.35260218 134 255 122 129.50061
0.62724155 -0.19469081 -0.3171428 0 108 255 59.37559
-0.5177049 -0.118435636 -0.263836 0 248 255 94.82371
0.5293892 -0.109927654 -0.31498945 0 164 255 73.6531
-0.09798479 -0.0029128536 -0.24415997 114 255 142 124.85951
-0.1136074 -0.17098244 0.33835185 0 0 204 19.280079
-0.44581982 0.018874336 0.19244944 118 255 138 125.86862
0.2941002 0.1899418 0.13701032 0 168 255 330.54956
-0.45749456 -0.18854731 -0.36637512 22 255 234 101.90636
0.1645593 -0.09075831 -0.21675709 0 136 255 66.36402
0.47243005 -0.038169257 0.1200788 0 248 255 94.7944
0.30490935 0.1806738 0.2612522 0 100 255 313.01917
-0.9657357 0.10870428 0.012156211 246 255 10 157.90533
0.83434653 -0.13631716 0.18455368 0 188 255 79.47173
-0.010519355 -0.06525546 -0.17003706 0 212 255 85.18732
0.62109804 0.13724719 -0.20231675 0 0 144 260.30087
-0.5871621 -0.12711251 -0.22490616 50 255 206 108.711235
0.32756212 0.14134285 0.15223181 0 0 176 268.50473
-0.22725125 -0.016994305 0.20798759 34 255 222 104.11322
0.46409094 0.033420242 -0.084619455 255 240 0 163.23277
-0.81854546 0.08535483 -0.3453057 202 255 54 146.71
-0.41926143 -0.13101816 -0.37002742 0 200 255 82.46263
0.5428584 -0.021427747 -0.11134676 90 255 166 118.848434
0.80916035 0.103426374 -0.20459679 255 12 0 220.54828
-0.926637 -0.14216508 0.2692113 74 255 182 114.66971
0.47346452 0.045137193 0.07219765 255 192 0 175.82718
-0.07077192 0.3011578 -0.16112797 236 0 0 484.7526
-0.5569514 -0.016044283 0.33638847 0 244 255 93.25237
0.7336019 -0.026663424 -0.07967933 58 255 198 110.75744
0.32756212 0.14134285 0.15223181 0 0 176 268.50473
-0.62974423 -0.1865206 -0.26145038 150 255 106 133.24681
-0.5529191 -0.10640201 0.033352274 0 164 255 73.62977
0.19846457 0.13175815 -0.14056525 128 0 0 255.69205
0.53899497 0.039669283 0.022690907 255 200 0 173.30533
0.7578591 -0.06827443 -0.037076086 0 244 255 93.39208
-0.90478647 -0.16131333 -0.2933078 255 132 0 190.17386
-0.030575395 -0.06466434 -0.27886745 0 180 255 77.02408
-0.0827211 0.14377068 0.27307472 148 0 0 250.28627
-0.09065906 0.14746521 -0.26484933 0 0 176 268.27866
-0.28889716 0.0713156 0.35555783 255 168 0 181.90181
0.78608537 0.10114631 0.1389526 255 0 0 223.16698
0.4982918 -0.09278502 0.004091572 0 124 255 63.429382
-0.4125057 -0.031075755 0.2729903 0 224 255 88.995445
-0.44220975 0.16196889 0.17724907 0 0 255 288.1251
0.63110495 -0.23264949 -0.26708716 0 64 255 48.254257
0.61294895 0.1396328 -0.085696146 0 0 164 265.81332
0.43130463 0.1356638 0.3273949 140 0 0 252.44496
0.33653456 0.16165222 0.2821527 0 0 240 284.97708
-0.36880466 0.008508532 0.08184566 106 255 150 122.13468
0.82695746 0.07845132 0.25449648 255 92 0 200.65723
-0.33977616 -0.022103315 -0.05020751 26 255 230 102.06183
0.43879923 0.1367405 -0.31900066 0 0 136 258.24673
-0.5175149 -0.060843136 -0.32066846 0 220 255 87.167435
-0.6024891 -0.21174899 -0.27597517 146 255 110 132.80003
0.59472966 -0.016192064 0.37035707 34 255 222 104.68488
0.59692526 -0.11816119 0.36579698 0 192 255 80.99513
-0.07376976 0.08896492 -0.28306866 255 80 0 203.86049
-0.065768465 0.034665827 0.29418635 190 255 66 143.68434
0.62762153 -0.021427747 0.14965619 58 255 198 110.66827
-0.57574075 -0.08159586 -0.307727 30 255 226 103.198975
-0.8418527 0.20953338 -0.10731445 0 4 255 289.5445
-0.76580864 0.16980131 0.30465773 0 4 255 289.4329
-0.30810875 -0.047416143 0.05879178 0 196 255 81.96722
-0.61538833 -0.038274817 0.2961286 0 152 255 70.55901
0.5423728 -0.23509844 0.26646677 0 80 255 52.640213
-0.96850127 -0.071377836 0.09438597 206 255 50 147.37418
-0.58175755 -0.020752173 0.3640658 0 224 255 88.61156
0.17424953 0.2506588 -0.014972221 230 255 26 409.81335
-0.115422994 0.1670568 -0.14681427 0 0 248 286.59888
0.4247389 -0.04040709 0.040614676 22 255 234 101.25781
0.47481567 0.073616765 0.07276767 255 76 0 204.39963
-0.7587151 0.26934257 0.096708246 250 255 6 414.8074
-0.52188504 -0.019591033 0.16428654 0 236 255 91.75054
-0.4503166 -0.040934883 0.039960217 0 188 255 79.58317
-0.88739043 -0.17953265 -0.0064009023 246 255 10 157.40135
0.31732297 0.029282365 -0.028420322 234 255 22 154.41554
0.21605055 0.13574827 -0.29991576 132 0 0 254.32088
-0.38282278 0.04418717 0.17268896 222 255 34 151.27524
-0.7202076 -0.07701464 0.3564445 0 100 255 57.408245
0.47663125 -0.018092107 -0.08117826 106 255 150 122.97134
0.5067153 -0.175437 -0.32303298 0 152 255 70.2706
0.5873828 -0.11757006 -0.33065426 0 164 255 73.065765
0.78635985 -0.078492455 0.039284643 0 240 255 92.49296
-0.8779536 -0.014439799 -0.241141 210 255 46 148.58379
-0.20531628 -0.18852621 0.26933798 0 0 196 17.844435
-0.052932598 -0.1183512 -0.16929816 0 88 255 54.62735
-0.20993972 0.30320564 -0.16433693 224 0 0 487.69308
-0.061461695 -0.16673902 -0.3336521 0 36 255 41.440266
0.56658787 -0.1959786 0.36415026 0 128 255 64.13559
0.25048357 0.21316457 0.12858678 38 255 218 361.01425
-0.9783605 -0.02049883 0.031790018 198 255 58 145.90321
0.7098513 -0.15943441 -0.2625904 0 172 255 75.74437
0.76507926 0.12846474 -0.14571647 152 0 0 249.28818
-0.5900755 -0.06232095 0.3235315 0 84 255 53.162155
-0.90997994 0.08780377 0.0066883015 198 255 58 145.47559
-0.41457462 0.10139966 0.1595153 255 48 0 211.81401
-0.40644667 -0.10646535 0.29627642 0 48 255 44.346394
-0.8570531 -0.0100696925 0.35260218 0 212 255 85.65682
-0.44233644 -0.029407937 -0.29180887 0 224 255 88.39251
-0.07786542 -0.19053182 0.2152711 0 0 212 21.890215
0.6250671 -0.18105268 -0.10862337 0 104 255 58.89499
-0.49477768 -0.1914185 0.18725598 0 92 255 55.766743
-0.78934807 0.24831541 -0.06262115 22 255 234 357.11502
-0.9697046 -0.07237008 -0.04993306 255 248 0 161.73643
0.71014684 -0.12726028 0.3755083 0 196 255 81.42632
0.10971133 -0.035910312 0.054463897 30 255 226 103.146355
-0.4144691 0.10125187 0.03347895 255 92 0 200.00543
0.631865 -0.06723996 0.12349889 0 180 255 77.21116
-0.0640162 -0.08360146 0.12195774 0 168 255 74.42289
-0.46608698 -0.06656439 -0.27905744 0 164 255 73.854195
0.849378 -0.061307594 0.19320945 14 255 242 99.22454
-0.41463795 0.10150521 -0.16779923 255 92 0 200.22314
-0.779489 0.2460776 -0.23489197 0 208 255 340.2602
-0.51601595 0.009437444 0.28384164 78 255 178 115.00864
0.60617214 -0.26034793 -0.36477062 0 92 255 55.91945
0.5673268 -0.26389468 -0.29183 0 72 255 50.78327
0.7260228 -0.0152631495 0.20338525 62 255 194 111.26109
-0.9080165 0.16279225 -0.09110072 255 16 0 219.78352
0.0009653633 -0.18738617 -0.2778963 0 8 255 34.297672
-0.015987266 -0.032279115 0.22819142 0 252 255 95.25626
0.16567823 0.25416335 0.10639848 250 255 6 414.4786
-0.4503166 -0.063144304 0.0066038547 0 120 255 62.80205
0.47481567 0.073616765 0.07276767 255 76 0 204.39963
-0.5439256 0.30029222 -0.15335888 255 68 0 462.967
0.2021591 0.06582657 -0.015816687 255 160 0 183.77623
-0.40919116 -0.03745146 -0.12819384 0 224 255 88.4554
0.6230403 -0.23461287 -0.35461593 0 96 255 56.894554
0.2744875 -0.1461763 -0.024768012 0 60 255 47.072723
-0.20692074 -0.11575446 0.37215155 0 32 255 40.971256
-0.8284046 0.21873803 -0.12150145 0 60 255 303.61633
-0.6379989 -0.17395918 -0.2609859 146 255 110 132.52013
-0.5341931 -0.11030766 -0.08396499 0 192 255 80.752754
0.20097685 0.05776194 0.2225335 255 224 0 167.04326
-0.73675907 0.09709288 -0.3453057 255 224 0 167.82259
0.53899497 0.039669283 0.022690907 255 200 0 173.30533
-0.0722075 -0.05484744 0.35260218 0 152 255 70.90433
0.29131347 0.06797997 -0.3487258 255 172 0 180.20937
0.5146533 -0.18861066 -0.30810705 0 136 255 66.521866
0.0337306 -0.19101737 0.19981739 0 0 204 19.033005
-0.5569514 -0.016044283 0.33638847 0 244 255 93.25237
-0.79029816 -0.18795618 -0.26995835 255 220 0 168.08809
-0.13484567 0.11522777 -0.086667284 255 4 0 222.69283
0.5417606 -0.14813969 0.13251355 0 84 255 53.975906
-0.5020612 -0.13901946 0.24657963 0 44 255 43.665592
0.29186237 0.13401711 -0.34505236 156 0 0 248.21414
0.49081826 -0.013215324 -0.030003693 122 255 134 126.650604
-0.712544 0.29431763 -0.20584238 255 228 0 422.79633
-0.61538833 -0.038274817 0.2961286 0 152 255 70.55901
0.1336519 0.110013194 -0.10824335 220 0 0 232.21393
0.32960996 0.02085883 0.054463897 190 255 66 143.54225
0.58560944 0.0056795753 0.038355734 174 255 82 139.17683
0.78825986 -0.08368591 -0.0445496 0 244 255 93.9333
0.27680978 0.19910423 -0.15388668 0 204 255 339.88785
0.6246449 -0.017099861 -0.2770096 114 255 142 124.72176
0.2263319 0.22540931 -0.10923561 98 255 158 376.5692
0.710168 -0.09324947 0.27442586 0 208 255 84.364365
-0.12426876 0.08847935 0.13926928 255 96 0 199.66624
0.10945797 -0.14260843 0.3557056 0 28 255 39.190125
0.58225274 0.13819721 -0.2567636 0 0 144 260.24283
-0.063192844 0.30274117 0.11775652 255 20 0 474.86935
0.50432974 -0.08117363 0.2946297 0 172 255 75.81126
-0.65617603 -0.0017517144 0.3000976 14 255 242 99.161415
0.09288535 -0.1461763 0.013486243 0 56 255 46.98634
0.6816251 -0.20469771 0.32944277 0 120 255 62.257378
-0.4782895 0.26750588 -0.23628533 230 255 26 409.00552
0.36765307 0.14336956 0.28477055 0 0 152 262.14502
-0.30365422 -0.13779499 -0.29632676 0 80 255 52.394012
-0.11295293 -0.05094179 0.034302298 0 232 255 90.883606
-0.41400462 -0.039034836 -0.2907955 0 200 255 82.91411
0.788091 -0.07319344 0.051550493 0 244 255 93.807755
-0.4186703 -0.023834467 -0.2673616 6 255 250 97.88903
-0.5833198 0.013131977 0.30662107 74 255 182 114.94419
0.07285043 -0.046613906 -0.29041553 0 212 255 85.25158
0.58035266 -0.027338997 -0.2886421 42 255 214 106.297585
-0.5299496 -0.0034195322 -0.37002742 6 255 250 97.51124
-0.10241824 0.0036317483 0.14285824 102 255 154 121.57619
-0.4792184 0.16308782 0.056617282 0 0 188 271.2915
-0.6125594 0.052019585 0.36292577 255 244 0 162.10173
-0.770031 0.07121004 0.35260218 255 224 0 167.03232
0.267584 0.01420867 0.054463897 158 255 98 135.39522
-0.49929556 -0.027275663 0.37147596 0 224 255 88.605125
0.48051584 -0.024256703 -0.13518178 86 255 170 117.8196
-0.97812825 -0.0023428404 0.040234666 182 255 74 141.89552
-0.08341777 -0.03658589 -0.09696975 22 255 234 101.59149
0.46301427 -0.10536754 -0.29425782 0 164 255 73.59262
-0.6576116 -0.11068767 0.27581924 0 124 255 63.979836
-0.50725466 -0.13576828 0.3318495 0 0 224 24.073439
0.44407713 0.07764909 0.07230321 255 68 0 206.06334
-0.07199638 -0.11982901 -0.3623639 0 44 255 43.897266
-0.41670692 0.10446084 0.25002083 248 0 0 225.00159
-0.066380695 -0.13730942 -0.04716744 0 52 255 45.735767
0.63218164 -0.13331932 0.21451108 0 152 255 70.588264
-0.9128933 0.16000552 -0.066167906 255 32 0 215.9221
-0.35501876 -0.094558395 0.37377715 0 84 255 53.706554
-0.1434381 0.29911 -0.22241499 232 0 0 485.1222
0.53648275 -0.01954881 0.16937444 66 255 190 112.87751
0.66306794 -0.21937029 0.2995487 0 104 255 58.89074
0.55028975 0.14030837 -0.16380914 0 0 152 262.73203
0.42919347 -0.19076404 0.20807204 0 52 255 45.53603
-0.40422997 -0.03878149 -0.060045525 0 216 255 86.54962
0.14226544 0.06588991 -0.17556831 255 140 0 188.17842
0.5625978 -0.13486047 -0.19036755 0 120 255 62.36386
-0.4635536 -0.18130603 0.36634585 0 0 184 14.066837
0.18687427 0.24288973 0.18848045 182 255 74 397.60223
0.67761385 -0.10317194 -0.3225685 0 220 255 87.17266
-0.45094997 -0.07454458 -0.3153272 0 168 255 74.38004
-0.73473233 0.1581477 0.31090674 0 0 204 275.3008
0.68914086 -0.0954662 0.3355229 0 216 255 86.7294
0.53116256 0.06354652 0.073759906 255 104 0 197.37262
0.5061453 -0.10262304 -0.26413152 0 148 255 69.29585
0.46409094 0.033420242 -0.084619455 255 240 0 163.23277
0.10662903 -0.100110754 0.015365176 0 152 255 70.64469
0.59909976 -0.08429815 0.30649444 0 208 255 84.92712
-0.4428431 -0.15664765 0.2715969 0 0 236 27.297504
-0.52570623 -0.026832318 -0.2645749 0 200 255 82.15453
0.6246449 -0.017099861 -0.2770096 114 255 142 124.72176
0.46442875 -0.097049564 0.33258837 0 168 255 74.56049
-0.47132266 -0.059449773 0.28924623 0 128 255 64.94506
0.2906379 0.19188407 -0.11905251 0 164 255 329.7522
0.28527552 0.13287708 -0.3314776 156 0 0 248.7829
-0.2112275 0.30124223 0.21252659 255 52 0 466.39685
-0.9128933 0.16000552 -0.066167906 255 32 0 215.9221
-0.9753837 0.0007394559 0.106419586 154 255 102 134.96646
-0.4503166 -0.022145541 0.19133052 0 240 255 92.673004
0.24269342 0.1370994 0.3090067 148 0 0 250.85649
0.53116256 0.06354652 0.073759906 255 104 0 197.37262
0.57712257 0.04340604 -0.03374045 255 208 0 171.55836
0.09324425 -0.10049076 0.27816263 0 68 255 49.97432
-0.057302706 -0.07243342 0.054463897 0 192 255 80.84388
-0.024854146 0.018726556 -0.24010654 174 255 82 139.23097
-0.55602247 -0.23554179 -0.33187872 134 255 122 129.88698
0.4027195 0.1441718 0.030481096 0 0 208 276.10733
-0.5431022 -0.26900372 -0.29966238 142 255 114 131.08784
-0.64053226 0.2984344 0.10815074 255 52 0 466.57718
0.40736404 0.14298955 0.24113283 0 0 168 266.6634
-0.47890174 -0.048387285 -0.10608997 0 156 255 71.59569
0.13230075 -0.045410544 0.075849965 2 255 254 96.2402
0.6895842 0.01929657 0.17190783 214 255 42 149.77422
0.267584 0.01420867 0.054463897 158 255 98 135.39522
-0.40980342 0.08634707 0.2636589 255 72 0 205.93782
-0.050990332 0.03168909 0.06772199 194 255 62 144.91994
0.1227583 -0.025903407 0.18945159 18 255 238 100.83386
-0.70779395 -0.18983513 -0.23037407 210 255 46 148.07838
0.6804006 -0.20592219 -0.3407456 0 108 255 59.614582
-0.41465908 -0.15388204 0.27765593 0 0 208 20.56831
-0.6557749 -0.10101855 -0.3062281 114 255 142 124.67786
0.2601105 0.039331496 -0.1850052 255 224 0 167.87764
0.6600701 -0.14066617 0.13046573 0 140 255 67.32237
0.6026254 -0.06778886 -0.31498945 0 188 255 79.52872
0.0063066054 0.29923666 -0.064795636 255 4 0 478.04218
0.67271596 0.13353154 0.28895068 0 0 144 260.34433
0.3984127 0.0038850876 0.0032893305 158 255 98 135.96835
-0.41457462 0.10139966 0.1595153 255 48 0 211.81401
0.76339036 -0.08925938 0.36961818 0 240 255 92.654205
-0.3520209 -0.049506202 0.1364192 0 180 255 77.06571
0.85588044 -0.063144304 0.026279883 34 255 222 104.76129
-0.35278094 -0.13779499 -0.27962744 0 120 255 62.367073
0.47038224 0.036206976 0.1182421 255 228 0 166.1245
0.2081548 0.2344451 0.08505463 142 255 114 387.9406
0.5835616 -0.017817656 -0.36696625 18 255 238 100.95364
-0.90478647 -0.16131333 -0.2933078 255 132 0 190.17386
-0.90997994 0.10496751 0.0047038095 255 248 0 161.2042
0.73771864 -0.038000364 -0.114386834 30 255 226 103.48092
-0.078773215 0.13899945 -0.081389375 144 0 0 251.84705
0.7184649 -0.07182118 0.104793996 0 216 255 86.112366
0.51456887 -0.034559175 -0.25792474 2 255 254 96.89777
-0.555938 -0.09734513 0.015998526 0 164 255 73.965294
-0.61006826 -0.033989158 -0.022699073 0 176 255 76.21517
-0.059477203 -0.12759808 -0.2529635 0 36 255 41.510864
-0.65457153 -0.09654289 0.31787357 0 84 255 53.14178
0.13230075 -0.045410544 0.075849965 2 255 254 96.2402
-0.050779216 0.30272007 0.05478057 255 12 0 476.4307
-0.5976124 -0.11738005 -0.0074353716 0 224 255 88.6336
0.013505668 -0.13882944 -0.3507314 0 68 255 49.09664
0.18676874 -0.10714092 0.022036448 0 140 255 67.329765
-0.09566252 -0.054868553 0.0499249 0 224 255 88.98486
-0.46106243 0.18390387 -0.23831205 0 0 236 283.79834
-0.5705684 -0.09831627 0.072894335 0 160 255 72.15349
0.6882964 -0.19800532 0.28426388 0 116 255 61.874737
-0.76485866 0.08771933 -0.3453057 238 255 18 155.55481
-0.49908444 -0.108534284 -0.23354082 0 216 255 86.31462
0.0051243533 0.038381472 -0.3453057 238 255 18 155.65393
-0.42586935 -0.016994305 -0.05696323 26 255 230 102.9833
-0.15243165 0.20659886 -0.21804489 0 228 255 345.57678
-0.86412543 0.18823175 -0.21865714 136 0 0 253.98332
0.451804 0.0029772879 -0.011256575 170 255 86 138.19302
-0.41301236 -0.04194824 0.3531722 0 208 255 84.5694
-0.94198513 0.023265554 0.33484733 22 255 234 101.297676
0.6804006 -0.20592219 -0.3407456 0 108 255 59.614582
-0.5023145 -0.06945668 0.07416103 0 76 255 51.157444
0.56016994 -0.034706954 0.31320792 0 232 255 90.86998
0.19348222 0.024363358 -0.020482354 202 255 54 146.98952
0.7226449 -0.20727332 0.31797916 0 120 255 62.262993
-0.7704743 -0.024193365 -0.3453057 158 255 98 135.88583
-0.88211256 0.16169445 -0.30375805 255 36 0 214.781
0.2716163 0.20303099 -0.008005386 0 228 255 345.8645
-0.50028783 -0.02712788 0.11368199 0 220 255 87.14741
0.7661982 0.122722395 -0.061206665 172 0 0 244.84816
-0.47381386 0.083475895 -0.2887688 255 156 0 184.1646
-0.48787418 -0.048893966 -0.23354082 0 156 255 71.650024
0.5056386 -0.14697854 -0.31416607 0 156 255 71.739716
-0.38558838 0.29982778 0.2171078 255 76 0 460.72702
0.68544626 -0.021427747 0.1495084 46 255 210 107.56701
-0.6435935 0.29799107 0.17969802 255 56 0 465.12717
0.84378344 -0.14754856 0.23566492 0 180 255 77.56287
-0.55602247 -0.12812588 0.30752888 0 24 255 38.60074
-0.4503166 -0.12894922 -0.14159971 0 152 255 70.94679
-0.53440416 -0.15630987 0.34080082 0 0 236 27.6914
0.58949393 0.13785943 0.26824018 0 0 156 263.5305
0.83590883 0.06384209 -0.25374463 255 148 0 186.9041
0.33393782 0.026495634 0.034302298 214 255 42 149.25104
0.096706554 0.28384626 0.021487545 255 100 0 454.31143
0.56071883 0.039669283 0.031367783 255 192 0 175.18207
0.74850667 -0.07028004 0.16310428 0 228 255 89.20882
0.22489631 0.047797255 -0.27686185 255 220 0 168.46211
-0.23533699 0.3053379 -0.07706149 232 0 0 485.44077
0.6627302 -0.06265874 -0.16934039 0 208 255 84.46847
0.09324425 -0.10049076 0.27816263 0 68 255 49.97432
-0.49965444 -0.13756275 0.002782652 0 152 255 70.81511
0.2674151 0.00964856 -0.3453057 114 255 142 124.95035
0.5908873 -0.053116284 -0.1148724 0 228 255 89.710106
0.70630455 -0.15234089 0.26950684 0 156 255 71.82543
0.20205355 0.08837379 -0.22739734 255 48 0 211.91429
0.53848827 0.076466836 -0.03897613 255 80 0 203.07585
-0.7202076 -0.07701464 0.3564445 0 100 255 57.408245
0.49081826 -0.013215324 -0.030003693 122 255 134 126.650604
-0.17238213 -0.10095522 -0.04716744 0 112 255 60.50735
0.019860264 -0.0043484448 0.040150218 90 255 166 118.62768
0.06174572 -0.05140625 0.23786053 0 200 255 82.331635
-0.40406105 0.08508038 -0.046175193 255 156 0 184.41508
-0.96066886 0.07370122 -0.1497699 182 255 74 141.96548
-0.5959656 0.3011367 0.05005157 255 36 0 470.70413
0.5153288 0.014884242 0.2672268 178 255 78 140.72858
-0.5461845 0.19224297 -0.28762877 0 0 248 286.6775
0.46043864 -0.08393925 0.23910612 0 124 255 63.779655
0.34031352 -0.18884288 0.26517898 0 52 255 45.079906
0.16669157 -0.049316198 0.054463897 0 248 255 94.81389
0.8037769 -0.12441022 0.3464798 0 208 255 84.52219
0.4950828 -0.12926589 0.26950684 0 132 255 65.064285
-0.7450559 0.16950575 -0.29981017 184 0 0 241.58669
0.30716828 0.1826794 -0.1295872 0 116 255 317.6311
-0.08730232 -0.14142618 0.054463897 0 44 255 43.7248
-0.3677913 -0.024404481 0.057968426 2 255 254 96.05893
-0.0956203 -0.016825411 0.2014852 46 255 210 107.01034
0.80246794 -0.18516946 0.15210514 0 132 255 65.11027
-0.44932437 -0.14754856 0.3636647 0 0 176 12.292888
0.33674568 -0.007916307 -0.29890236 54 255 202 109.537766
-0.009104878 0.0022172697 0.10941744 110 255 146 123.89499
0.5069053 -0.07568461 0.35994905 0 212 255 85.16965
0.57741815 0.084024794 0.03660347 255 20 0 218.7138
-0.037795566 -0.038971502 0.2897318 0 216 255 86.301056
-0.45494005 0.020584378 0.37339714 158 255 98 135.81334
-0.48401076 0.24320641 -0.017948959 138 255 118 386.28156
0.32756212 0.14134285 0.15223181 0 0 176 268.50473
-0.42200592 -0.06772553 0.28426388 0 128 255 64.21515
0.49153608 -0.008127425 0.2401828 90 255 166 118.11006
0.39319816 0.049063955 0.04808819 255 204 0 172.07498
0.41468978 0.06365208 -0.05094642 255 152 0 185.87474
0.21315825 0.0064184815 0.045069225 130 255 126 128.48984
0.33674568 0.07374343 -0.21846712 255 80 0 203.36424
-0.8027962 -0.014439799 -0.29128107 166 255 90 137.22275
0.026869323 0.29507768 0.23009147 255 52 0 466.27356
-0.5392387 -0.235394 0.30543885 0 44 255 43.906265
0.56935346 -0.06837999 0.33108947 0 224 255 88.82027
-0.36257672 -0.19129182 0.19152053 0 0 255 32.816013
0.6276427 0.13515714 0.31430572 0 0 140 259.79562
0.756128 0.12979478 0.17376566 0 0 128 256.5126
-0.23293027 -0.049717315 -0.21160585 0 228 255 89.63098
0.32851213 0.14140616 0.13907926 0 0 176 268.9764
0.5348149 0.039669283 -0.026372496 255 224 0 167.42601
-0.46608698 -0.06656439 -0.27905744 0 164 255 73.854195
-0.08407224 -0.13779499 -0.2755107 0 0 248 30.815487
-0.57027286 -0.11431888 -0.357276 66 255 190 112.03967
0.8495469 0.04393383 0.22285017 255 240 0 163.16881
0.82347405 -0.1427351 0.32291928 0 188 255 79.36678
0.2915035 0.0056584636 -0.3453057 98 255 158 120.053246
-0.102756016 0.007875184 0.19107719 110 255 146 123.51799
-0.46914816 -0.10705647 -0.23354082 0 188 255 79.20563
0.0337306 -0.19101737 0.19981739 0 0 204 19.033005
0.43039683 -0.046930578 -0.030003693 18 255 238 100.754036
-0.9753837 0.0007394559 0.106419586 154 255 102 134.96646
0.5017541 -0.08666265 -0.30316693 0 172 255 75.071686
0.08277289 0.28925085 -0.10152986 255 52 0 466.65445
-0.4381141 -0.12683806 -0.268945 0 188 255 79.19534
-0.45371556 0.040471524 0.26186442 210 255 46 148.88194
0.63110495 -0.23264949 -0.26708716 0 64 255 48.254257
-0.6835156 0.29668212 0.18651707 255 60 0 464.88525
0.8536003 -0.07355234 -0.047821898 34 255 222 104.448975
0.51625776 0.012013061 -0.11565354 198 255 58 145.36649
-0.56225044 -0.07078671 -0.31498945 10 255 246 98.452286
0.16198368 0.25597894 -0.06139667 255 240 0 419.2163
-0.5889777 0.30084115 -0.11533686 255 76 0 460.8331
-0.45749456 -0.18854731 -0.36637512 22 255 234 101.90636
0.7205338 0.13232818 0.06713086 0 0 136 258.50253
-0.14639373 -0.13779499 -0.2778963 0 0 248 30.109015
0.52829134 -0.06362987 -0.12680048 0 212 255 85.94776
0.6263549 -0.13264376 0.33871076 0 176 255 76.43644
0.014265684 0.3006089 -0.025211357 255 4 0 478.02582
-0.4395919 0.1590555 0.21237881 0 0 244 285.17654
0.62595373 -0.057338607 -0.23012073 0 228 255 89.03934
-0.88540596 -0.1503775 0.32859826 0 248 255 94.16658
-0.88432926 -0.14284065 0.06601196 206 255 50 147.21565
0.68249065 -0.05710638 0.1149698 0 216 255 86.62104
0.07080261 -0.029893504 -0.2591281 18 255 238 100.334366
-0.8832948 -0.18149604 0.21801561 70 255 186 113.75631
-0.4503166 -0.020161048 0.032697815 2 255 254 96.237274
0.53116256 0.06354652 0.073759906 255 104 0 197.37262
0.52892476 0.039669283 0.0057171667 255 208 0 171.10321
0.25001913 0.041125983 -0.1428664 255 208 0 171.02254
0.15242012 -0.1461763 0.031262226 0 64 255 48.057236
-0.1614252 -0.07528349 0.054463897 0 172 255 75.683495
-0.37133804 0.0073685045 0.15630634 98 255 158 120.26483
0.033012804 -0.1461763 0.0035637817 0 52 255 45.896515
-0.4722727 -0.046339452 0.36195463 0 180 255 77.0827
0.067952536 -0.020541057 0.054463897 62 255 194 111.688095
0.5875728 -0.2346762 0.3584501 0 104 255 58.365517
0.8392655 -0.16443786 0.023767602 0 160 255 72.21187
-0.4526389 -0.13416378 -0.23354082 0 196 255 81.36677
0.41468978 0.06365208 -0.05094642 255 152 0 185.87474
0.65004206 0.13541047 0.24446847 0 0 156 263.86682
0.69522095 0.13313042 0.23074591 0 0 144 260.63055
-0.08341777 -0.03658589 -0.09696975 22 255 234 101.59149
-0.56839395 -0.14588074 0.059530687 0 196 255 81.81883
0.6794084 0.13372155 -0.24990232 128 0 0 255.86313
-0.5529191 -0.10640201 0.033352274 0 164 255 73.62977
-0.8844982 -0.14284065 -0.08993959 255 244 0 162.6944
-0.8540341 0.20326322 0.03379562 0 24 255 294.5701
-0.43887413 -0.041145995 -0.27358955 0 184 255 78.924736
-0.50725466 -0.13576828 0.3318495 0 0 224 24.073439
-0.46528476 0.17189136 0.14760835 0 40 255 298.39825
0.67738163 -0.13851278 -0.14854544 0 148 255 69.75
-0.8667433 0.19293964 -0.065872334 0 0 160 264.63522
0.75897807 -0.11307328 -0.36477062 14 255 242 99.94475
-0.5151926 0.21056786 -0.27783298 0 112 255 316.95624
-0.70019376 0.2273727 0.27613592 106 255 150 378.35596
-0.5467334 -0.15103197 0.017328557 0 196 255 81.847916
-0.15399392 0.21778803 0.15465964 2 255 254 352.93033
-0.42618603 0.30341676 -0.07630148 236 0 0 484.19092
0.6590568 -0.18041934 0.33011833 0 136 255 66.864784
0.66306794 -0.21937029 0.2995487 0 104 255 58.89074
0.4247389 -0.04040709 0.040614676 22 255 234 101.25781
-0.094353594 0.08201919 -0.3453057 255 120 0 193.32156
-0.04216567 0.008001854 0.005273823 126 255 130 127.73498
-0.4684937 0.07154782 0.029699966 255 216 0 169.3342
-0.9724069 0.030886848 0.12903014 126 255 130 127.085236
-0.81854546 0.08535483 -0.3453057 202 255 54 146.71
0.5346882 -0.21744913 -0.36840183 0 140 255 67.636665
-0.35149312 0.30445123 -0.045520734 240 0 0 483.01788
0.8640717 0.016742064 0.11663762 170 255 86 138.1873
-0.76485866 0.08771933 -0.3453057 238 255 18 155.55481
0.6129279 -0.04798616 -0.3223363 0 212 255 85.34668
-0.08337556 0.1425462 0.12094438 136 0 0 253.02592
0.74305993 0.122722395 -0.12986165 176 0 0 243.67973
-0.42038032 -0.18981402 0.3058822 0 0 192 16.078026
-0.081517726 -0.045178317 0.21970454 0 224 255 88.514206
-0.25389412 -0.016424289 0.25555205 34 255 222 104.7054
0.30488825 0.18443166 0.08513908 0 144 255 324.01822
-0.52576953 0.29856107 -0.16716588 255 72 0 461.3429
0.0813373 -0.0043484448 -0.0018196811 98 255 158 120.8854
0.5069053 -0.07568461 0.35994905 0 212 255 85.16965
0.85588044 -0.063144304 0.026279883 34 255 222 104.76129
-0.06462844 -0.07144117 0.082436785 0 192 255 80.91267
0.014920144 -0.060442016 -0.17567387 0 220 255 87.55742
0.5017541 -0.08666265 -0.30316693 0 172 255 75.071686
-0.9534487 -0.107436486 -0.16486472 255 184 0 177.46602
0.46238092 0.14246175 -0.20339343 0 0 160 264.87198
0.1301896 -0.025417842 0.21558778 14 255 242 99.04698
-0.059033856 -0.18671061 -0.28724876 0 4 255 33.089794
0.052414384 0.29763216 0.16135202 255 28 0 472.13715
0.5413172 -0.061877612 0.1849548 0 156 255 71.371
-0.37247807 0.021914411 0.10891076 146 255 110 132.39024
-0.16543642 -0.09863294 -0.36650178 0 36 255 41.268772
-0.023967458 -0.13353044 0.054463897 0 72 255 50.69508
-0.63052535 0.05940865 0.35260218 255 224 0 167.46014
0.48805267 0.037748124 -0.11533686 255 232 0 165.96407
-0.010434908 -0.0043484448 -0.0045853034 94 255 162 119.11953
0.23279205 0.22277036 0.028222153 82 255 174 372.2046
-0.60158134 -0.25895458 0.33947077 0 120 255 62.346542
0.6590146 0.13562159 0.17642573 0 0 164 265.85046
-0.59334785 -0.14123619 -0.02696362 0 248 255 94.192245
0.77555066 0.051322896 0.15837528 255 192 0 175.03357
-0.08671119 0.13737386 -0.1457587 140 0 0 252.26892
0.6627302 -0.06265874 -0.16934039 0 208 255 84.46847
0.5697546 -0.23273394 -0.36715624 0 120 255 62.670525
-0.633481 0.29911 -0.14191638 255 124 0 448.33884
-0.37059912 -0.020372164 0.28491834 14 255 242 99.60753
0.25823155 0.13775387 0.27858484 132 0 0 254.51366
0.14228654 0.26490915 0.013992921 255 204 0 428.96524
0.69861996 0.13351043 -0.12661047 0 0 132 257.2142
-0.5161215 -0.021174405 0.17467345 0 232 255 90.645584
-0.45555228 -0.22564043 -0.35930273 50 255 206 108.27145
0.49808064 0.12713473 -0.32776195 144 0 0 251.5573
-0.3628934 -0.049506202 0.103400625 0 176 255 76.28712
-0.5545446 -0.13842833 0.085666865 0 172 255 75.40942
0.46575877 0.04695279 -0.09962982 255 200 0 173.64967
-0.16986986 0.30297342 -0.1611913 228 0 0 486.95795
-0.4219004 0.30103114 0.19076051 255 64 0 463.42947
-0.6362255 0.10395416 0.35260218 255 12 0 220.3355
-0.666584 -0.09274279 0.26646677 0 148 255 69.54025
0.29186237 0.13401711 -0.34505236 156 0 0 248.21414
0.69294095 0.13429156 0.09159923 0 0 160 264.2403
0.22772528 0.11552333 -0.14550535 188 0 0 240.1759
-0.48732525 0.20218652 0.05397833 0 168 255 330.71228
-0.08664785 -0.19148184 0.18514481 0 0 220 23.787529
0.6404152 -0.23015831 -0.33612218 0 88 255 54.994198
-0.46845147 0.07897911 0.06292965 255 192 0 175.88144
-0.45371556 0.040471524 0.26186442 210 255 46 148.88194
-0.68020105 -0.18204494 -0.28992996 198 255 58 145.59218
0.5069053 -0.07568461 0.35994905 0 212 255 85.16965
-0.0678374 0.12671249 -0.2342375 164 0 0 246.43697
0.32916662 -0.18744951 0.284475 0 56 255 46.119846
0.4605653 -0.08087807 0.30818337 0 164 255 73.64188
0.73771864 -0.038000364 -0.114386834 30 255 226 103.48092
0.7015333 -0.23165724 -0.31283605 0 84 255 53.798466
0.51064205 -0.029809058 -0.36396837 0 212 255 85.534676
-0.22712457 -0.018113218 -0.23028962 70 255 186 113.68126
0.6972477 0.13513602 0.032740038 0 0 152 262.52148
-0.69001794 -0.14680964 0.35139883 0 80 255 52.639717
0.5056386 -0.14697854 -0.31416607 0 156 255 71.739716
-0.57909745 0.2990044 0.1360392 255 60 0 464.44156
0.3344234 0.11187101 0.34987882 255 4 0 222.47308
0.78445977 -0.013616445 0.010066161 70 255 186 113.00046
-0.30359086 -0.12094791 -0.00572533 0 20 255 37.07224
-0.92057794 0.11100544 -0.3325543 254 255 1 159.51416
-0.1361546 0.123376854 -0.17746836 200 0 0 237.3641
0.83434653 -0.13631716 0.18455368 0 188 255 79.47173
-0.4503166 -0.109505415 -0.021136813 0 96 255 56.275436
0.1396687 -0.021533301 -0.25304797 46 255 210 107.75407
0.46301427 -0.10536754 -0.29425782 0 164 255 73.59262
-0.5151926 -0.2650347 -0.31047153 114 255 142 124.97221
0.36746305 0.14341177 0.017476339 0 0 192 272.97476
-0.97234356 -0.04287715 0.13323134 174 255 82 139.68541
-0.5724051 -0.10813317 0.36579698 0 0 232 26.960802
-0.60848486 -0.03344026 -0.2676994 10 255 246 98.07475
-0.45213223 -0.09346059 0.36738032 0 60 255 47.968407
-0.0152905835 -0.06681773 -0.20223229 0 196 255 81.672325
-0.15243165 0.20659886 -0.21804489 0 228 255 345.57678
-0.6916013 -0.13264376 -0.29193553 170 255 86 138.2846
-0.96383566 -0.09599399 0.021234205 250 255 6 158.6804
-0.65640825 0.23613401 0.26959133 142 255 114 387.73557
0.017664654 -0.0024272874 0.0026348706 98 255 158 120.59409
0.59238625 -0.1432418 -0.25798807 0 120 255 62.04581
0.037192903 0.29799107 0.05269052 255 28 0 472.1973
-0.350712 0.3044301 0.105448455 255 24 0 473.66718
0.530677 0.14062504 0.21919785 0 0 168 266.86105
0.49478728 0.07342676 -0.045140725 255 104 0 197.6171
0.59738976 -0.03880261 0.04534368 10 255 246 98.018074
0.70330673 -0.17518367 0.3073389 0 140 255 67.74158
-0.76580864 0.16980131 0.30465773 0 4 255 289.4329
0.69701546 0.013110865 -0.25161237 214 255 42 149.75037
-0.779489 0.2460776 -0.23489197 0 208 255 340.2602
-0.06623292 -0.09481174 -0.04716744 0 144 255 68.85246
-0.2689467 0.18092714 0.30098426 0 52 255 301.65817
-0.025128596 -0.0016039329 0.22546801 74 255 182 114.83223
0.8674073 0.019845473 -0.0027063694 186 255 70 142.75876
0.44637832 0.14220841 -0.250599 0 0 152 262.12625
0.5428584 -0.021427747 -0.11134676 90 255 166 118.848434
-0.7900659 0.027086757 -0.3453057 142 255 114 131.01968
-0.31465334 -0.18394499 -0.30595365 0 132 255 65.97962
-0.54415774 0.21234122 -0.27688295 0 112 255 316.02615
-0.30810875 -0.047416143 0.05879178 0 196 255 81.96722
-0.45266 0.22920941 -0.026520276 58 255 198 366.1825
-0.67568314 0.29566878 0.17178117 255 64 0 463.54712
-0.49908444 -0.108534284 -0.23354082 0 216 255 86.31462
0.2021591 0.06582657 -0.015816687 255 160 0 183.77623
0.76860493 0.03181576 0.13392803 238 255 18 155.24055
0.3976316 -0.08845714 0.024168722 0 152 255 70.509224
-0.45063326 0.028902356 -0.03701275 166 255 90 137.4633
-0.8181022 -0.032321338 0.35260218 0 192 255 80.89928
0.600282 -0.058964208 -0.02681584 0 200 255 82.619385
0.6908509 0.018240988 -0.27190062 234 255 22 154.61392
-0.55602247 -0.23554179 -0.33187872 134 255 122 129.88698
0.6111123 -0.07902024 -0.1479332 0 160 255 72.22786
0.6671847 -0.058330856 -0.29725567 0 244 255 93.17438
-0.40919116 -0.03745146 -0.12819384 0 224 255 88.4554
0.5372427 -0.050012875 0.3112023 0 212 255 85.951965
-0.55355245 -0.0720534 -0.27842408 0 248 255 94.39339
0.41612536 0.14277843 -0.24274549 0 0 160 264.94214
-0.16254413 -0.08229254 0.36518472 0 104 255 58.708454
-0.28361925 -0.022567773 0.20724869 18 255 238 100.86619
0.67381376 -0.14693633 0.33108947 0 164 255 73.77278
0.69813436 -0.05795085 -0.2596348 2 255 254 96.797264
0.7015333 -0.23165724 -0.31283605 0 84 255 53.798466
-0.03940005 0.03335691 0.12470225 202 255 54 146.24838
0.6869663 0.13300376 0.27799374 0 0 140 259.58008
-0.484243 0.30250895 0.057419524 255 24 0 473.86542
0.5708735 0.04251935 -0.19623658 255 212 0 170.81041
-0.5031801 0.010345243 -0.31612948 82 255 174 116.85012
-0.08854789 0.062089823 0.07194431 255 216 0 169.43489
0.5659545 0.139105 -0.2349553 0 0 148 261.20044
0.2937202 0.19125071 0.0011148338 0 168 255 330.8267
-0.08685897 0.30356452 -0.034331575 248 0 0 481.77264
-0.8082008 0.22380483 -0.25334352 0 72 255 306.4299
0.59472966 -0.016192064 0.37035707 34 255 222 104.68488
-0.5629893 -0.11013877 -0.19165537 2 255 254 96.73365
0.41612536 0.14277843 -0.24274549 0 0 160 264.94214
-0.84877735 -0.013151989 -0.3453057 218 255 38 150.70854
-0.64640135 -0.22988386 0.2937641 0 112 255 60.19066
0.5702824 0.081259176 0.016336313 255 36 0 214.49876
-0.73737127 0.2139457 0.2810338 22 255 234 357.0418
-0.7177797 0.29784328 0.08564576 255 72 0 461.32147
-0.964659 0.058141947 0.18136583 78 255 178 115.881874
0.062843524 0.29710436 0.036814585 255 32 0 471.97095
-0.8116842 -0.18683729 -0.28555983 255 196 0 174.18073
-0.96383566 -0.09599399 0.021234205 250 255 6 158.6804
-0.104254946 0.043469373 0.15459631 242 255 14 156.13681
-0.85375965 0.198112 0.18630596 0 76 255 307.8916
0.5876151 -0.15595098 -0.11278235 0 112 255 60.394466
0.66720587 -0.15103197 -0.1688337 0 136 255 66.71619
-0.7900659 0.027086757 -0.3453057 142 255 114 131.01968
0.3236987 0.17461477 0.0020648567 0 84 255 309.07983
-0.11820973 0.16617012 -0.117828034 0 0 248 286.4984
-0.7036349 0.20148985 0.28998512 0 216 255 342.31735
0.7409065 0.122722395 0.107981846 156 0 0 248.02719
-0.61061716 -0.045938335 0.0030148798 0 176 255 76.44154
-0.32501915 0.068444416 -0.34916914 255 192 0 175.27405
-0.059857212 -0.09071608 -0.11535797 0 152 255 70.60247
0.752919 -0.18759729 0.28242716 0 132 255 65.07614
-0.16543642 -0.09863294 -0.36650178 0 36 255 41.268772
0.60693216 -0.024108922 0.37284824 30 255 226 103.508316
-0.43532735 -0.03922484 0.29232854 0 196 255 81.738
0.057312276 0.2986033 0.0713743 255 24 0 473.8765
0.7044679 0.022442201 -0.36154053 242 255 14 156.53767
0.19008325 0.06255428 0.24565071 255 208 0 171.4357
0.58560944 0.02738232 -0.009103189 250 255 6 158.70793
-0.4979444 -0.031223537 0.15575744 0 204 255 83.539024
-0.486333 -0.16167222 -0.32045734 18 255 238 100.28263
-0.44930327 0.22331928 -0.15787677 0 224 255 344.1667
-0.08280554 -0.04152601 0.13188021 0 252 255 95.059975
0.13061182 -0.13608493 -0.07824374 0 80 255 52.95089
0.678395 -0.23782185 -0.26250595 0 64 255 48.545727
0.23002642 0.077670194 -0.15071993 255 72 0 205.96214
-0.30603978 -0.022884443 -0.1344851 34 255 222 104.78691
-0.81067085 0.21816802 -0.26782608 0 36 255 297.15717
-0.9688602 -0.040238198 0.21286437 142 255 114 131.4144
0.046017557 0.295141 0.19696732 255 48 0 467.96335
-0.4393808 -0.110202104 -0.34809247 0 196 255 81.378654
-0.72618216 -0.14968084 0.330625 0 128 255 64.0844
-0.4620969 0.06582657 -0.2420699 255 212 0 170.41985
-0.5748329 -0.23260726 -0.2811264 138 255 118 130.2885
0.62903607 -0.263388 0.284475 0 76 255 51.94183
0.49571612 -0.111954376 0.36754924 0 184 255 78.98099
0.54095834 -0.03622699 -0.27650294 0 248 255 94.494156
0.692392 -0.1927063 0.31916142 0 128 255 64.4472
0.18676874 -0.10714092 0.022036448 0 140 255 67.329765
0.2986392 -0.032258004 0.054463897 34 255 222 104.72012
0.5115499 -0.1654512 -0.31661505 0 152 255 70.14248
0.3157607 0.060590893 -0.3453057 255 204 0 172.42216
0.044708636 0.29938444 0.08203567 255 20 0 474.48184
0.5043508 -0.11199659 -0.27031723 0 148 255 69.55641
0.849378 -0.09217278 -0.10442215 22 255 234 101.685585
-0.88739043 -0.1814327 0.08220456 170 255 86 138.68709
-0.33986062 0.06901443 0.35684565 255 172 0 180.679
-0.8367648 0.21633132 0.0095594805 0 100 255 313.0812
-0.08191885 -0.064706564 0.054463897 0 208 255 84.23206
0.65555227 -0.021427747 -0.111030094 78 255 178 115.48522
0.5882062 0.013195312 0.2861217 178 255 78 140.6449
-0.15931404 -0.0863882 0.054463897 0 148 255 69.73832
0.0041743303 0.028649017 0.2721247 174 255 82 139.27742
-0.13680907 -0.19165072 0.17952913 0 0 208 20.437788
0.631865 -0.06723996 0.12349889 0 180 255 77.21116
-0.56288373 -0.11495222 0.27459478 0 60 255 47.257153
0.043758616 0.29771662 -0.034500465 255 20 0 474.71964
-0.2696856 0.30523235 -0.099819824 228 0 0 486.91034
0.58560944 0.0056795753 0.038355734 174 255 82 139.17683
0.83892775 -0.17081356 0.12981126 0 148 255 69.56688
0.60724884 0.1372683 0.2546865 0 0 160 264.35342
-0.6627629 -0.03937262 -0.3062281 70 255 186 113.27003
0.39362037 -0.08385481 0.36640918 0 168 255 74.28443
-0.5091336 -0.14446627 -0.0033397179 0 168 255 74.547714
0.2943324 0.18793619 -0.21574372 0 144 255 324.09558
0.47006553 0.047797255 -0.05305758 255 200 0 173.93059
0.71006244 -0.2141557 0.27841598 0 108 255 59.56058
0.5556521 0.06740995 -0.05043974 255 124 0 192.92502
-0.5233206 -0.08700044 -0.014022198 0 140 255 67.36735
0.74305993 0.122722395 -0.12986165 176 0 0 243.67973
-0.06610625 0.095678404 0.2091276 255 76 0 204.54779
-0.4635536 -0.18130603 0.36634585 0 0 184 14.066837
0.5144633 -0.08828824 0.3595479 0 204 255 83.70933
-0.46963373 -0.04897841 -0.30344138 0 160 255 72.9106
-0.402541 -0.07815467 0.343482 0 128 255 64.09669
0.12104826 -0.019738816 -0.2616615 54 255 202 109.3565
0.19536117 0.060231995 -0.17784837 255 152 0 185.24574
0.2674151 0.00964856 -0.3453057 114 255 142 124.95035
-0.58515656 0.2997011 0.015555182 255 36 0 470.9341
0.67575604 -0.064411 0.15596856 0 212 255 85.362816
-0.3492553 -0.049020637 -0.22847402 0 208 255 84.0292
0.50492084 -0.04076599 0.26646677 0 216 255 86.53164
-0.2409949 -0.017902104 0.0014737312 50 255 206 108.58665
0.71227914 -0.058668643 0.37854838 14 255 242 99.40403
-0.5569514 -0.016044283 0.33638847 0 244 255 93.25237
-0.12914555 0.090611614 0.11057858 255 88 0 201.96637
-0.48534077 0.18871732 -0.19796774 0 0 248 286.44464
-0.48781085 0.19988537 -0.1920987 0 56 255 302.0167
0.7260228 -0.0152631495 0.20338525 62 255 194 111.26109
-0.4186703 -0.023834467 -0.2673616 6 255 250 97.88903
0.5449907 0.13948502 0.27035132 0 0 156 263.35678
-0.08574006 -0.017669875 0.35260218 14 255 242 99.94966
-0.01892178 -0.011357503 -0.062410023 86 255 170 117.428696
-0.4503166 -0.04110377 -0.04670298 0 200 255 82.47309
-0.08595117 -0.009605237 0.005653832 82 255 174 116.02195
-0.16543642 -0.09863294 -0.36650178 0 36 255 41.268772
0.021886978 -0.1876395 -0.27430734 0 12 255 35.201374
-0.5712651 -0.16709791 -0.00044742596 0 240 255 92.23286
0.5041819 -0.11376997 0.33431953 0 172 255 75.49927
-0.08388223 0.13101926 -0.20233785 152 0 0 249.5133
-0.82722235 0.20252432 -0.28213975 0 0 200 274.3198
-0.9695991 0.050647326 0.11705985 114 255 142 124.09801
0.579487 0.14111061 -0.08556947 0 0 172 267.77072
-0.12331874 -0.10849206 -0.04716744 0 104 255 58.924465
0.45005172 0.14168063 0.28783175 0 0 148 261.0762
-0.55429137 -0.15060973 -0.047821898 0 228 255 89.51032
-0.54415774 0.21234122 -0.27688295 0 112 255 316.02615
-0.12426876 0.08847935 0.13926928 255 96 0 199.66624
0.1507523 -0.12158127 0.054463897 0 104 255 58.649345
0.67381376 -0.14693633 0.33108947 0 164 255 73.77278
-0.041764554 -0.12105347 0.054463897 0 96 255 56.731464
0.58560944 0.020901054 0.013591801 234 255 22 154.00644
0.82237625 -0.16078554 -0.29959905 0 236 255 91.37978
-0.7677298 -0.09907628 -0.3453057 222 255 34 151.28532
-0.36570126 -0.046529464 0.16164759 0 184 255 78.594444
-0.4702671 -0.20315656 -0.35814157 46 255 210 107.07724
0.16016808 -0.19165072 0.17961358 0 0 224 24.181784
-0.31268996 -0.04874618 -0.11483018 0 208 255 84.751144
-0.13767464 0.11041432 -0.10752556 255 16 0 219.09225
0.21123709 0.03506695 0.054463897 210 255 46 148.29091
-0.028400898 -0.10646535 -0.04716744 0 128 255 64.439644
0.24199674 0.04254046 -0.17096597 255 212 0 170.98305
-0.5048057 -0.1347127 0.023070918 0 148 255 69.678856
0.20205355 0.08837379 -0.22739734 255 48 0 211.91429
-0.7448659 0.2755705 -0.19146535 138 255 118 386.8436
0.22101179 0.22823827 0.09073366 114 255 142 380.15765
0.23838665 -0.1461763 0.0041760188 0 60 255 47.171284
-0.5569514 -0.016044283 0.33638847 0 244 255 93.25237
-0.6024891 -0.21174899 -0.27597517 146 255 110 132.80003
-0.9766715 -0.044439405 -0.012502161 230 255 26 153.8358
0.6325617 -0.1143822 -0.25556025 0 172 255 75.23119
0.47933355 -0.011294167 -0.09023515 130 255 126 128.15855
0.41468978 0.06365208 -0.05094642 255 152 0 185.87474
0.4525218 -0.08845714 -0.008575399 0 148 255 69.45855
0.32399425 -0.18981402 0.23832498 0 36 255 41.516296
0.78796434 -0.03559364 -0.057406574 38 255 218 105.342125
0.7102102 -0.035635866 0.055097245 0 240 255 92.97774
-0.09198909 -0.0040528816 0.10724294 82 255 174 116.17467
0.042724147 -0.13612717 0.3596746 0 8 255 34.975807
0.75038564 0.07127338 0.1850815 255 104 0 197.91962
0.78530425 0.10961207 0.3233837 228 0 0 230.8594
-0.91836125 0.14919637 -0.23563087 255 104 0 197.49277
0.09763547 -0.12966703 0.36362246 0 28 255 39.605312
0.49451277 -0.12565582 -0.33523548 0 176 255 76.52928
