ply
format ascii 1.0
element vertex 878
property float x
property float y
property float z
property uchar red
property uchar green
property uchar blue
property float weight
end_header
-0.3075089 -0.3257558 -0.30343837 78 255 178 115.45849
-0.27802208 0.78450847 -0.18748619 122 255 134 1150.5259
-0.18425481 -0.6663704 -0.34710997 220 0 0 232.60916
0.23733877 -0.07068888 -0.30786738 0 116 255 61.83129
0.44254944 -0.25223827 -0.38112554 0 160 255 72.46097
-0.3075089 -0.17018193 -0.3477484 0 128 255 64.18804
-0.2070981 0.45781934 -0.26224065 255 120 0 705.90894
-0.3075089 -0.48793325 0.30842295 0 228 255 89.03322
-0.3075089 -0.61607516 0.3218097 46 255 210 107.37211
0.44254944 -0.25223827 -0.38112554 0 160 255 72.46097
0.22548817 0.024036001 0.07204963 170 255 86 138.98326
-0.2070981 0.5927245 -0.011103976 70 255 186 881.8981
-0.2070981 0.15090112 -0.09517531 0 0 132 257.61243
-0.19480862 -0.44583774 0.30361488 0 204 255 83.50707
-0.30030677 0.7967381 0.13806579 170 255 86 1162.1267
-0.3075089 0.22896735 -0.30541348 58 255 198 366.92676
0.468505 -0.11539792 0.4258116 0 196 255 81.916504
0.22548817 0.024036001 0.07204963 170 255 86 138.98326
-0.09439784 0.024036001 -0.081569076 182 255 74 141.9319
0.26570836 -0.07068888 -0.13383935 0 192 255 80.88999
-0.3075089 0.80010974 -0.061099883 206 255 50 1171.0125
0.2982276 0.024036001 -0.107624404 234 255 22 154.76277
-0.21537755 -0.07068888 -0.17475778 0 172 255 75.31695
0.32542014 -0.06252913 0.4258116 0 188 255 79.233284
-0.3075089 0.69890094 -0.11951489 0 0 148 1029.0226
-0.2521064 -0.07068888 0.17706896 0 168 255 74.2892
0.23249078 -0.07068888 -0.22058403 0 164 255 73.16055
0.5547908 -0.032224357 -0.3323067 0 228 255 89.14542
0.22582734 -0.07068888 0.15392642 0 168 255 74.76516
0.40623957 0.024036001 0.12703316 214 255 42 149.94406
-0.3075089 0.5405939 -0.1071456 0 44 255 811.95593
-0.2070981 0.115548864 0.40639976 255 4 0 222.645
-0.08115073 0.024036001 0.26752445 154 255 102 134.78397
-0.19169635 -0.7683971 -0.38792866 0 0 188 271.90863
0.5547908 -0.29866305 -0.38645235 0 100 255 57.552296
-0.2070981 0.44259712 0.0812069 250 255 6 670.1725
-0.12314649 -0.07068888 -0.33557862 0 144 255 68.10991
0.5547908 -0.2678994 0.30894166 0 72 255 50.796124
-0.3075089 -0.0672175 0.15089394 0 148 255 69.9562
0.43450937 -0.44358334 0.31063747 0 184 255 78.41192
-0.2070981 0.16117561 0.07192993 0 0 216 278.93604
-0.19480862 -0.39977208 0.37563613 0 200 255 82.630585
-0.22712839 0.80595523 -0.011822193 234 255 22 1178.242
-0.19357167 -0.24770951 -0.2797771 0 72 255 50.94677
0.54705006 -0.69338334 -0.4102333 0 228 255 89.830864
-0.2070981 0.44149983 0.16653512 242 255 14 668.40326
0.12186537 -0.07068888 -0.29481974 0 140 255 67.23126
-0.2070981 0.33540317 0.42309833 136 0 0 509.8694
0.50062525 -0.5265574 0.30553013 2 255 254 96.08757
0.40949148 -0.07068888 0.1494575 0 148 255 69.701904
0.05656745 0.024036001 -0.018804863 186 255 70 142.04291
-0.3075089 0.17956996 -0.34722966 0 28 255 295.52826
-0.2070981 0.34601682 0.16037041 0 0 204 531.06903
0.15885356 -0.07068888 -0.11817821 0 208 255 84.1835
0.44917297 -0.07068888 0.16868977 0 144 255 68.17402
-0.23472953 0.6603766 0.4258116 255 108 0 964.3757
-0.3075089 0.43565434 -0.4099939 255 208 0 683.554
-0.19480862 -0.4825666 0.3435358 0 252 255 95.35837
0.23412675 0.024036001 0.14275414 166 255 90 137.75084
-0.26204175 -0.6436468 -0.2797771 208 0 0 235.15982
0.48344794 -0.6768045 0.30553013 30 255 226 103.76795
-0.0922831 -0.07068888 -0.2226988 0 184 255 78.80638
0.4979918 -0.63622516 0.4258116 50 255 206 108.01042
0.43450937 -0.46572837 0.36011463 0 220 255 87.37801
0.48219103 -0.7321471 -0.4102333 18 255 238 100.67987
-0.10612874 -0.07068888 0.32536092 0 136 255 66.377205
-0.26154298 -0.5905984 0.28984904 14 255 242 99.91283
-0.24572225 -0.772886 0.29475686 134 255 122 129.98206
-0.2070981 0.54623985 -0.009408185 0 64 255 816.67645
0.3291509 0.024036001 0.28444245 178 255 78 140.80768
-0.22100359 0.24075808 0.4258116 98 255 158 376.67218
-0.2070981 0.51002973 -0.21354152 0 0 152 774.5808
-0.3075089 0.17956996 -0.34722966 0 28 255 295.52826
-0.2070981 0.22679275 -0.19081792 98 255 158 376.71606
-0.19480862 -0.6664901 0.33583492 86 255 170 117.56304
0.059121106 0.024036001 0.14077905 158 255 98 135.60272
-0.22838527 0.40941948 0.4258116 30 255 226 615.3284
-0.3075089 -0.63728255 0.3537305 78 255 178 115.30937
0.5547908 -0.24455734 0.38896307 0 104 255 58.05384
0.52979285 -0.07068888 -0.18608965 0 184 255 78.09091
0.5547908 -0.6335917 0.35805973 30 255 226 103.98581
-0.2070981 0.5135211 0.010123336 0 0 136 770.7422
0.0058533256 0.024036001 -0.16649829 194 255 62 144.0297
-0.08551989 -0.07068888 0.027939117 0 196 255 81.56413
0.21780723 0.024036001 -0.29970762 190 255 66 143.65396
-0.18425481 -0.53030807 -0.28049532 255 204 0 172.9712
0.48101395 -0.54590935 -0.4102333 0 72 255 50.085075
-0.2070981 0.6825016 0.25339952 212 0 0 1002.1432
-0.29055098 0.7624832 -0.26882428 2 255 254 1120.6766
0.4326939 0.019327687 -0.4102333 82 255 174 116.56413
0.46557227 -0.07068888 0.049725045 0 180 255 77.40696
-0.18425481 -0.13403167 -0.3202766 0 0 244 29.980703
0.44310802 -0.07068888 -0.10662688 0 204 255 83.0769
-0.2070981 0.41726 -0.33049121 186 255 70 654.08356
-0.2070981 0.08528399 -0.1152455 255 124 0 192.65948
-0.19480862 -0.29632884 0.34654832 0 68 255 49.21914
-0.30603254 -0.7862528 -0.369255 0 96 255 312.0058
-0.23538789 -0.09764198 -0.2797771 0 80 255 52.709152
-0.3075089 0.35663047 -0.33232668 0 108 255 571.3616
-0.21114804 -0.772886 0.34720668 146 255 110 132.36086
0.5547908 -0.27366507 -0.32470557 0 88 255 54.06517
-0.2070981 0.7144224 0.26906067 0 0 212 1045.6274
-0.3075089 0.38739413 -0.27778205 14 255 242 611.0087
0.15414524 -0.07068888 0.3624688 0 112 255 60.6458
-0.3075089 0.70047706 -0.041727968 0 0 156 1031.0963
0.42050415 -0.07068888 -0.28859523 0 140 255 67.759674
-0.2128638 -0.41493446 0.4258116 0 240 255 92.10805
-0.2361061 -0.5604932 -0.2797771 255 104 0 197.40572
-0.19301307 -0.44825175 -0.39636773 254 255 1 159.93515
0.43450937 -0.3108528 0.37306252 0 60 255 47.840965
0.25772813 0.024036001 -0.24340738 210 255 46 148.09811
0.107002266 0.024036001 0.21068554 162 255 94 136.64864
0.40623957 0.024036001 0.12703316 214 255 42 149.94406
-0.2070981 0.27150178 -0.33210722 255 160 0 439.03638
0.17339748 0.024036001 0.41491863 174 255 82 139.242
-0.2070981 0.05551786 -0.33424193 255 228 0 166.34903
0.5547908 -0.026259165 -0.31231633 14 255 242 99.23936
-0.18425481 -0.53645283 -0.37390348 255 140 0 188.51826
0.20124833 0.0033473517 0.4258116 106 255 150 122.67792
-0.3075089 0.10629184 -0.2049229 255 60 0 208.73517
-0.3075089 -0.03447876 0.3193957 0 232 255 90.20104
-0.3075089 0.71577907 0.18311396 0 0 228 1049.7921
0.5398679 -0.19607766 -0.2979919 0 120 255 62.381912
0.51247585 -0.062249828 0.4258116 0 252 255 95.00111
-0.2423905 0.019347638 -0.4102333 146 255 110 132.06252
-0.2012127 -0.7862528 -0.33091018 0 0 192 272.27734
-0.18425481 -0.66766715 -0.36053663 212 0 0 234.416
-0.2070981 0.46963 -0.120193206 255 80 0 715.4731
-0.3075089 0.65814215 -0.18371555 255 68 0 974.8575
0.10033881 0.024036001 0.32452297 162 255 94 136.83607
-0.3075089 0.102281794 0.044438165 255 64 0 207.82593
-0.20342723 -0.28244328 0.28984904 0 0 255 32.788906
0.5272193 -0.5233055 -0.4102333 0 56 255 46.501007
0.53348374 -0.056085132 0.4258116 6 255 250 97.14797
0.535379 0.024036001 0.26425257 222 255 34 151.14291
0.049824186 -0.07068888 -0.29565766 0 144 255 68.77864
-0.3075089 0.19058262 -0.18020427 0 76 255 307.82172
-0.2070981 0.39794794 -0.22395566 54 255 202 621.3317
0.054672148 -0.07068888 -0.24540244 0 172 255 75.08214
-0.24817616 -0.092674315 -0.2797771 0 92 255 55.599567
-0.3075089 -0.31312716 0.38110256 0 124 255 63.76973
0.49785218 0.024036001 0.1426943 234 255 22 154.6957
-0.3075089 -0.04028435 -0.06734438 0 232 255 90.390724
0.08996455 -0.07068888 0.119551726 0 192 255 80.88742
-0.3075089 0.053423062 -0.18656847 255 232 0 165.92752
0.35740075 -0.07068888 0.012277989 0 196 255 81.57368
-0.2459417 0.49271274 -0.4102333 156 0 0 760.6939
-0.22860473 0.80050874 -0.091544315 210 255 46 1172.8403
-0.3075089 -0.052354395 -0.36532477 0 192 255 80.832596
0.36701688 -0.07068888 0.21754849 0 128 255 64.08024
0.40366593 0.024036001 -0.061059985 234 255 22 154.9807
-0.3075089 0.4034742 -0.28751788 102 255 154 633.66974
0.44254944 -0.3997122 -0.30501446 0 64 255 48.247173
-0.3075089 0.09120928 0.35917696 255 88 0 201.67583
-0.2070981 0.07993725 -0.0680626 255 140 0 188.407
-0.2070981 0.685175 0.22780304 196 0 0 1006.4502
0.5346009 -0.07068888 -0.19907741 0 176 255 76.462166
0.028357469 -0.021909958 -0.4102333 0 232 255 90.82236
0.37633377 -0.02811456 -0.4102333 0 232 255 90.81999
-0.2070981 0.13464147 -0.22227982 168 0 0 245.84933
-0.19480862 -0.68687946 0.34758577 106 255 150 122.112335
-0.2070981 0.16981417 -0.23263413 0 0 252 287.8862
-0.3075089 0.51374054 -0.31680518 0 0 204 787.153
0.18556726 0.024036001 0.1365296 166 255 90 137.19617
-0.28314933 0.7129261 0.40462416 0 0 184 1038.1686
0.43450937 -0.4175679 0.3858508 0 156 255 71.85881
-0.3075089 0.19058262 -0.18020427 0 76 255 307.82172
-0.010506071 -0.07068888 0.4140408 0 104 255 58.680683
-0.3075089 0.17246757 0.36342642 0 8 255 290.49292
-0.2070981 0.6973847 -0.19600505 0 0 148 1029.4708
0.13427457 0.024036001 0.22086027 162 255 94 136.96056
-0.2070981 0.71877164 -0.05333915 0 8 255 1058.8079
0.52979285 -0.07068888 -0.18608965 0 184 255 78.09091
0.15209036 0.024036001 0.15847512 162 255 94 136.95383
-0.2070981 0.5175311 -0.19039896 0 0 188 783.6351
-0.30665103 -0.7558483 0.28984904 166 255 90 137.16261
0.48274967 -0.3860661 -0.2979919 0 52 255 45.282215
0.44254944 -0.3997122 -0.30501446 0 64 255 48.247173
0.4665299 -0.3352323 0.4258116 0 88 255 54.076202
-0.23215592 -0.6506294 -0.2797771 228 0 0 230.80313
0.5547908 -0.6472379 -0.36965403 0 204 255 83.96104
-0.3075089 0.6012832 0.3094803 102 255 154 889.23596
0.5547908 -0.14943343 0.42158207 0 176 255 76.401306
0.2706361 0.024036001 -0.08681605 226 255 30 152.83649
0.47337294 -0.6867199 0.30553013 34 255 222 104.22687
0.15418516 -0.07068888 -0.17242357 0 196 255 81.12661
0.48761755 -0.4747859 0.4258116 0 240 255 92.39461
0.5547908 -0.2566673 -0.3236482 0 96 255 56.085617
-0.3075089 0.051108807 -0.078377 255 248 0 161.7872
-0.2070981 0.17955 0.012238087 0 76 255 307.38516
0.16108802 0.024036001 -0.29286462 194 255 62 144.72736
0.49442068 -0.34939712 0.30553013 0 68 255 49.030342
0.24607708 -0.07068888 -0.15337086 0 188 255 79.91199
-0.25118867 0.7975561 -0.11574425 198 255 58 1169.011
0.5547908 0.020085806 0.1302851 230 255 26 153.61499
0.17720802 -0.07068888 0.34371537 0 112 255 60.374588
-0.2070981 0.043587472 -0.2813532 250 255 6 158.98235
-0.18425481 -0.53030807 -0.28049532 255 204 0 172.9712
-0.2070981 0.13711533 0.34106195 172 0 0 244.83397
-0.3075089 0.56736743 0.04635341 0 176 255 844.2095
-0.2070981 0.34601682 0.16037041 0 0 204 531.06903
0.44254944 -0.2958899 -0.39816326 0 148 255 69.31054
-0.06808317 -0.07068888 -0.21104771 0 188 255 79.38883
0.033664294 -0.07068888 0.00571428 0 208 255 84.20948
-0.2070981 0.10525441 -0.122268066 255 52 0 210.63069
-0.3075089 0.58592135 -0.26886418 70 255 186 881.60156
-0.2914288 -0.24154481 -0.2797771 0 152 255 70.84509
-0.19480862 -0.66048497 0.40426508 122 255 134 126.53001
-0.3075089 -0.03447876 0.3193957 0 232 255 90.20104
-0.2070981 0.28508806 -0.33296508 255 72 0 461.94235
-0.3075089 0.4066264 -0.14187938 86 255 170 629.0484
-0.2251134 -0.07068888 0.15622072 0 172 255 75.89949
-0.25551793 0.061443157 -0.4102333 255 220 0 168.91298
-0.2070981 0.5607239 0.33641347 0 124 255 831.22986
-0.19480862 -0.39977208 0.37563613 0 200 255 82.630585
-0.3075089 0.12035693 -0.24939252 255 0 0 223.08095
0.00086570234 -0.0006626955 -0.4102333 66 255 190 112.50305
-0.09415843 0.024036001 -0.047852766 178 255 78 140.33127
0.40623957 0.024036001 0.12703316 214 255 42 149.94406
-0.3075089 0.53293294 0.105805844 0 0 236 795.7634
0.4844255 0.024036001 -0.22034463 234 255 22 154.17682
0.15733734 -0.006767543 -0.4102333 30 255 226 103.41505
0.43450937 -0.40884954 0.31079707 0 132 255 65.62813
0.44544226 -0.7156082 -0.2979919 70 255 186 113.07294
-0.18425481 -0.1753491 -0.35710517 0 32 255 40.043537
0.15336719 -0.07068888 0.29858735 0 116 255 61.862877
-0.2070981 0.64429647 0.059301272 255 148 0 954.1504
-0.2070981 0.6973847 -0.19600505 0 0 148 1029.4708
-0.15257344 0.024036001 0.25036705 162 255 94 136.41615
-0.28033632 0.28710306 0.4258116 255 168 0 437.41672
-0.2070981 0.68178344 0.011479969 196 0 0 1006.8164
0.17720802 -0.07068888 0.34371537 0 112 255 60.374588
0.15809545 -0.07068888 0.014153333 0 216 255 86.98614
-0.24109374 0.80302256 0.08669328 206 255 50 1171.8899
-0.24967246 0.7728175 0.2490104 26 255 230 1126.455
0.04547498 -0.07068888 -0.19582549 0 192 255 80.54287
-0.078916274 -0.07068888 -0.37801328 0 104 255 58.81132
-0.2070981 0.44351482 0.27845734 250 255 6 670.57855
0.50114393 -0.1691844 -0.2979919 0 144 255 68.25184
-0.27606693 -0.15920918 -0.2797771 0 68 255 49.86743
-0.3075089 0.76852816 0.24330457 2 255 254 1120.8016
-0.2070981 0.15924042 -0.12925074 0 0 180 269.88287
-0.24326833 -0.1542415 -0.4102333 0 60 255 47.039864
0.40189034 0.024036001 0.30467227 182 255 74 141.50511
-0.24482447 -0.26179457 -0.2797771 0 128 255 64.76115
0.24607708 -0.07068888 -0.15337086 0 188 255 79.91199
-0.17507759 0.024036001 0.14417063 166 255 90 137.57246
-0.2621016 -0.15398215 0.4258116 0 0 220 23.277605
-0.2070981 0.30358213 0.09894288 255 20 0 474.0903
-0.2070981 0.4511758 -0.22359656 255 164 0 694.87164
0.33495647 0.024036001 0.39620507 178 255 78 140.42743
-0.3075089 0.0016515604 -0.07873611 110 255 146 123.07894
-0.3075089 -0.04028435 -0.06734438 0 232 255 90.390724
0.3538895 -0.07068888 -0.317284 0 144 255 68.30849
0.25355852 -0.07068888 0.19338846 0 148 255 69.13502
-0.2805159 -0.07068888 0.1929695 0 156 255 71.90677
-0.04188818 0.024036001 -0.22557166 190 255 66 143.8614
0.5547908 -0.026259165 -0.31231633 14 255 242 99.23936
-0.06999841 -0.023905007 -0.4102333 0 228 255 89.872635
-0.3075089 -0.036713216 -0.34110487 0 244 255 93.37111
0.44254944 -0.61298287 -0.3722276 0 156 255 71.357666
-0.2070981 0.47150534 -0.024750106 255 88 0 713.1586
-0.3075089 0.00061413576 -0.37384364 98 255 158 120.225204
0.44254944 -0.77306557 -0.40125558 70 255 186 113.71521
-0.30633178 -0.07068888 -0.18511207 0 148 255 69.64232
0.54507494 0.024036001 -0.19155608 230 255 26 153.90648
-0.19480862 -0.08030502 0.31959522 0 128 255 64.54251
-0.2070981 0.09994759 -0.08759412 255 68 0 206.32196
0.16779138 -0.07068888 -0.25749242 0 160 255 72.09312
-0.25543812 -0.09544743 0.28984904 0 120 255 62.024216
-0.2772041 0.20384969 -0.4102333 0 160 255 328.82895
0.31438753 -0.07068888 -0.34699026 0 160 255 72.1704
-0.3075089 0.09172799 -0.25042993 255 108 0 196.81627
0.15294823 0.024036001 0.3719852 170 255 86 138.34201
-0.3075089 -0.5681342 0.3530123 46 255 210 107.345795
-0.0053189476 0.024036001 0.36607984 154 255 102 134.68225
-0.18425481 -0.6867797 -0.3240073 204 0 0 236.53815
0.31265184 0.024036001 0.28013316 178 255 78 140.40727
-0.2070981 0.74063736 0.029195998 0 124 255 1087.4438
-0.23584674 0.5510678 -0.4102333 0 152 255 838.7743
0.40496272 0.024036001 -0.012560362 226 255 30 152.39973
-0.2313978 0.073453344 0.4258116 255 172 0 180.24287
-0.16496268 -0.07068888 0.3081636 0 144 255 68.782196
-0.3075089 -0.63728255 0.3537305 78 255 178 115.30937
0.13285808 0.024036001 0.00044735268 190 255 66 143.3343
-0.3075089 0.2063036 -0.1194351 0 200 255 338.08282
-0.039454218 -0.07068888 0.40663916 0 104 255 58.697693
0.054672148 -0.07068888 -0.24540244 0 172 255 75.08214
0.079650156 -0.07068888 0.14688389 0 184 255 78.63601
0.34483197 0.024036001 0.16629569 190 255 66 143.78401
-0.3075089 -0.7610354 0.37048888 150 255 106 133.2573
0.20882952 -0.07068888 -0.28414625 0 140 255 67.61961
0.4864006 -0.1333334 0.4258116 0 184 255 78.86961
0.26658618 0.024036001 0.024248278 198 255 58 145.59903
-0.2070981 0.06856547 -0.34264106 255 180 0 178.75441
-0.27606693 -0.07068888 -0.18178035 0 156 255 71.248024
-0.19620515 -0.08884382 -0.4102333 0 48 255 44.038124
-0.3075089 0.24690284 -0.22283843 182 255 74 397.52423
0.48496413 -0.07068888 0.1263349 0 152 255 70.16967
0.47199634 -0.41090444 0.4258116 0 156 255 71.3166
-0.2070981 0.12917505 0.27027762 192 0 0 239.93678
-0.2070981 0.33540317 0.42309833 136 0 0 509.8694
0.064906746 -0.024782827 -0.4102333 0 220 255 87.962975
-0.22409593 0.05635578 -0.4102333 255 236 0 164.44456
-0.3075089 -0.04062351 0.2133988 0 220 255 87.87286
-0.2070981 0.15066172 0.39568636 0 0 144 260.26898
-0.3075089 0.05017113 0.29170445 255 240 0 163.94418
-0.23584674 0.5510678 -0.4102333 0 152 255 838.7743
0.44721785 -0.4894894 -0.4102333 0 92 255 55.576584
0.5398679 -0.19607766 -0.2979919 0 120 255 62.381912
0.43714285 -0.49306053 0.30553013 0 244 255 93.97732
-0.3075089 -0.39390665 -0.39032272 255 236 0 164.15016
0.5547908 -0.5135497 -0.3896045 0 72 255 50.080597
0.44438487 -0.07068888 -0.29204664 0 156 255 71.33716
-0.3075089 -0.452581 -0.38740996 255 144 0 187.8728
-0.3075089 -0.1169341 0.35257336 0 48 255 44.66006
-0.20089352 0.00787611 0.4258116 94 255 162 119.65761
0.16158679 -0.07068888 0.024547534 0 216 255 86.14628
-0.3075089 0.07062038 -0.012700015 255 180 0 178.15523
0.25880548 0.024036001 0.36334664 178 255 78 140.25351
-0.26050556 -0.07068888 0.09170085 0 156 255 71.66857
0.5547908 0.020085806 0.1302851 230 255 26 153.61499
-0.2070981 0.042829357 0.019699566 238 255 18 155.23296
-0.3075089 0.62919396 -0.36775875 255 184 0 945.6574
-0.2544406 -0.101711884 0.4258116 0 28 255 39.61976
0.52500474 -0.6811736 0.4258116 58 255 198 110.460075
-0.3075089 0.24107729 -0.15979491 166 255 90 393.49463
0.1206484 -0.07068888 -0.039473563 0 216 255 86.62244
-0.3075089 0.53802025 0.1679516 0 8 255 802.7616
-0.22365701 -0.7423019 -0.4102333 0 0 212 277.81955
0.39935663 0.024036001 -0.34405756 154 255 102 134.23853
0.5539928 -0.07068888 0.2623573 0 184 255 78.22332
-0.3075089 0.23249859 0.32522124 58 255 198 366.49182
0.4490533 -0.0961457 -0.2979919 0 168 255 74.48902
-0.2070981 0.50566053 -0.17537625 132 0 0 766.8764
-0.3075089 -0.5730021 0.37487802 62 255 194 111.7389
-0.1906589 0.024036001 0.038353268 170 255 86 138.59631
0.55411255 -0.31210965 0.30553013 0 52 255 45.00363
0.0002671852 -0.07068888 -0.3707513 0 96 255 56.19129
0.42603043 -0.07068888 -0.1696704 0 188 255 79.19536
-0.27708438 0.2203288 0.4258116 0 252 255 351.49716
-0.17625466 -0.07068888 -0.35852167 0 132 255 65.932365
0.5547908 -0.050339393 0.2793551 0 204 255 83.57332
-0.2070981 0.058530387 -0.3236083 255 216 0 169.62369
-0.012521071 0.024036001 -0.26244015 190 255 66 143.88509
0.54762864 0.024036001 -0.08859165 234 255 22 154.14278
-0.29200736 -0.54120106 0.28984904 2 255 254 96.422775
0.08258288 -0.07068888 0.25212267 0 140 255 67.913506
0.5547908 -0.2808872 0.33483738 0 72 255 50.432014
0.53444135 -0.056923054 -0.4102333 0 232 255 90.43789
0.5547908 -0.15825154 -0.37863174 0 176 255 76.00826
0.116638355 -0.07068888 0.2183465 0 152 255 70.81506
0.16108802 0.024036001 -0.29286462 194 255 62 144.72736
-0.29869077 -0.7862528 -0.34924468 0 72 255 306.1635
0.44254944 -0.13644569 -0.345893 0 180 255 77.94996
0.44438487 -0.07068888 -0.29204664 0 156 255 71.33716
-0.3075089 0.52158105 -0.3078474 0 0 244 797.3287
0.23055561 -0.07068888 0.26157925 0 120 255 62.680183
0.04822815 -0.07068888 -0.32594252 0 120 255 62.99017
-0.219228 -0.098021045 0.4258116 0 32 255 40.4191
0.16096832 0.024036001 -0.1979203 210 255 46 148.63042
-0.19480862 -0.77140963 0.29960486 110 255 146 123.74907
-0.2191482 -0.07068888 0.13024518 0 172 255 75.867645
-0.18844442 -0.07068888 0.33429873 0 140 255 67.32095
0.16944727 -0.07068888 -0.0005701213 0 220 255 87.37295
-0.3075089 0.28682375 0.08286279 255 116 0 450.77332
-0.3075089 0.5996273 0.33374012 86 255 170 885.76086
-0.24161245 -0.5540691 -0.4102333 255 32 0 215.64413
-0.2070981 0.5698812 0.25932482 0 188 255 847.21234
-0.25687456 -0.42943847 -0.4102333 255 212 0 170.32777
-0.2070981 0.43190363 0.19175252 186 255 70 654.53735
-0.3075089 0.07289473 0.17569238 255 148 0 186.554
0.20244537 0.024036001 0.13517296 166 255 90 137.40144
0.38271794 0.024036001 0.4042052 174 255 82 139.71352
-0.3075089 -0.055805825 -0.31391236 0 188 255 79.60451
0.50006664 -0.045491427 -0.4102333 0 232 255 90.762375
0.5547908 -0.76939464 -0.3166057 30 255 226 103.03256
0.4433275 -0.16148353 -0.2979919 0 156 255 71.19383
-0.2070981 0.49321148 -0.17238367 200 0 0 749.9018
-0.3075089 0.76467764 -0.035323862 6 255 250 1121.1616
-0.26150307 -0.605681 -0.2797771 255 12 0 220.64848
0.2982276 0.024036001 -0.107624404 234 255 22 154.76277
0.48665994 -0.11529817 0.4258116 0 200 255 82.67671
0.06967492 -0.07068888 0.3554063 0 108 255 59.373386
-0.3075089 0.27545196 -0.06002256 255 144 0 443.81372
-0.3075089 0.096875206 0.18868014 255 36 0 214.93674
-0.2070981 0.50310695 -0.13210365 152 0 0 761.3243
0.42603043 -0.07068888 -0.1696704 0 188 255 79.19536
0.48219103 -0.7321471 -0.4102333 18 255 238 100.67987
-0.2070981 0.6543116 0.1725402 255 104 0 965.3984
0.43339214 0.024036001 -0.0017472003 226 255 30 152.62076
0.47207615 -0.29874286 -0.4102333 0 140 255 67.69372
-0.3075089 -0.37674922 0.36647886 0 188 255 79.57749
0.26927948 0.024036001 0.21445616 174 255 82 139.1061
-0.19829994 -0.26231328 0.28984904 0 0 228 25.745872
-0.3075089 0.46835318 0.33170515 255 136 0 701.19855
0.007828423 0.024036001 0.20152827 158 255 98 135.42467
-0.2070981 0.19122104 0.33944598 0 96 255 312.32718
0.40623957 0.024036001 0.12703316 214 255 42 149.94406
0.008347133 -0.07068888 -0.13525583 0 208 255 84.41131
-0.16240904 -0.07068888 0.21479532 0 184 255 78.09266
0.028357469 -0.021909958 -0.4102333 0 232 255 90.82236
0.43450937 -0.11741291 0.31372976 0 136 255 66.18094
0.1828939 -0.07068888 0.32779488 0 108 255 59.76501
0.24607708 -0.07068888 -0.15337086 0 188 255 79.91199
-0.25162756 -0.44978794 0.4258116 18 255 238 100.09721
-0.25166747 0.44533032 -0.4102333 255 160 0 695.5069
0.5547908 -0.59073806 -0.35989824 0 148 255 69.097046
0.24276529 0.024036001 0.32865274 174 255 82 139.54501
-0.113610156 -0.07068888 -0.10624783 0 188 255 79.06203
-0.2070981 0.50566053 -0.17537625 132 0 0 766.8764
0.5125158 -0.7800881 -0.35784334 82 255 174 116.93865
0.2825266 0.024036001 0.39399058 178 255 78 140.46861
0.21168244 -0.07068888 -0.31084 0 116 255 61.970516
-0.19399063 -0.41904423 -0.2797771 126 255 130 127.60846
0.25697005 -0.03761099 -0.4102333 0 188 255 79.932335
-0.3075089 0.0029283916 0.28206837 94 255 162 119.18219
-0.020062353 -0.07068888 -0.1609321 0 200 255 82.49737
0.5547908 0.013402394 0.22892027 194 255 62 144.10089
-0.29284528 0.11646659 -0.4102333 255 8 0 221.56165
0.44254944 -0.4197425 -0.38395852 0 88 255 54.649467
-0.07644241 -0.07068888 -0.18008456 0 188 255 79.60387
0.32075176 0.019587042 0.4258116 158 255 98 135.99753
0.47199634 -0.41090444 0.4258116 0 156 255 71.3166
-0.2070981 0.5171521 -0.2509686 0 0 200 786.12445
-0.3075089 -0.63728255 0.3537305 78 255 178 115.30937
-0.3075089 0.76852816 0.24330457 2 255 254 1120.8016
-0.3075089 0.3145948 0.2133988 244 0 0 482.4639
-0.2070981 0.7518096 -0.14167988 0 196 255 1105.7705
0.39935663 0.024036001 -0.34405756 154 255 102 134.23853
0.4435669 -0.07068888 -0.0009092802 0 196 255 81.90534
-0.3075089 0.30434027 -0.36582354 248 0 0 481.94113
0.48665994 -0.11529817 0.4258116 0 200 255 82.67671
0.5547908 -0.22241229 0.30796412 0 96 255 56.681297
-0.30561358 -0.68859524 -0.2797771 0 0 152 262.34793
-0.19281356 -0.03364084 0.4258116 0 216 255 86.015205
0.16158679 -0.07068888 0.024547534 0 216 255 86.14628
-0.3075089 -0.26658267 -0.28221104 0 188 255 79.57533
0.3795857 -0.04078311 -0.4102333 0 232 255 90.2259
0.48123342 -0.7399278 0.3553066 54 255 202 109.49681
-0.3075089 -0.01371031 -0.30800703 62 255 194 111.469505
-0.26800692 0.7053051 -0.40496638 0 0 228 1049.2234
-0.18206026 0.024036001 0.22824195 166 255 90 137.66925
0.48019597 -0.07068888 -0.03969302 0 200 255 82.20481
0.5547908 -0.72622186 -0.40057725 26 255 230 102.33449
-0.2070981 0.26354152 0.18169747 250 255 6 414.37225
0.061275765 -0.07068888 0.38419488 0 108 255 59.0891
-0.2070981 0.7594507 -0.13298148 0 240 255 1116.46
0.45966694 0.024036001 -0.28290933 194 255 62 144.1008
-0.3075089 0.35301945 -0.050685734 0 20 255 549.6457
-0.3075089 -0.7135134 -0.36975375 0 0 252 287.61163
0.43450937 -0.26500657 0.41785136 0 88 255 54.663612
-0.3075089 -0.74908507 0.32458284 142 255 114 131.22319
-0.2070981 0.32869983 0.008287892 0 0 132 513.4604
0.39588526 0.024036001 -0.09816788 242 255 14 156.01273
0.5451348 -0.07068888 -0.06526953 0 188 255 79.02259
-0.25751296 -0.11374202 0.4258116 0 0 255 32.872948
0.3136693 0.024036001 0.033844456 202 255 54 146.69402
0.5512197 -0.5557848 0.4258116 26 255 230 102.794174
0.5168051 0.024036001 0.14026032 238 255 18 155.58484
-0.078916274 -0.07068888 -0.37801328 0 104 255 58.81132
-0.2070981 0.59958744 -0.2798968 142 255 114 899.4493
-0.2070981 0.47802916 -0.17779025 255 24 0 729.6265
-0.3075089 0.43565434 -0.4099939 255 208 0 683.554
-0.3075089 0.6311691 -0.098467134 255 232 0 933.9393
-0.3075089 0.099309176 -0.05595266 255 80 0 203.82973
-0.3075089 -0.50161934 0.4100108 50 255 206 108.05948
-0.219228 -0.098021045 0.4258116 0 32 255 40.4191
-0.24660006 0.6668804 -0.4102333 236 0 0 996.17676
0.4904306 -0.46321464 0.30553013 0 212 255 85.26092
-0.3075089 0.096875206 0.18868014 255 36 0 214.93674
-0.2070981 0.51202476 -0.05571326 0 0 132 769.4961
-0.3075089 0.24829936 -0.026465848 210 255 46 404.3754
0.48235065 0.024036001 -0.19782053 234 255 22 154.79475
-0.22365701 -0.7423019 -0.4102333 0 0 212 277.81955
-0.30439663 0.7866232 0.1928099 106 255 150 1146.9144
0.12523702 -0.07068888 0.18038075 0 168 255 74.479095
-0.2687451 0.71964943 -0.37504065 0 48 255 1068.0165
-0.18425481 -0.66766715 -0.36053663 212 0 0 234.416
-0.2070981 0.04847534 -0.38274154 246 255 10 157.92201
-0.2070981 0.1562678 0.11913277 0 0 192 272.54977
0.44254944 -0.089741595 -0.3608359 0 200 255 82.01638
-0.3075089 -0.67233557 0.37928706 114 255 142 124.08769
0.4206438 0.024036001 -0.14656776 242 255 14 156.40182
-0.26553306 -0.65430033 -0.4102333 0 0 140 259.8921
0.48662004 -0.07068888 0.27560443 0 164 255 73.34514
-0.24464491 0.39156377 0.4258116 0 180 255 589.3973
0.06728086 0.024036001 -0.09645214 190 255 66 143.86339
-0.3075089 0.69890094 -0.11951489 0 0 148 1029.0226
-0.2070981 0.47715133 -0.3897641 248 0 0 737.43884
-0.2070981 0.44351482 0.27845734 250 255 6 670.57855
0.5539928 -0.07068888 0.2623573 0 184 255 78.22332
0.5437183 -0.27476236 0.4258116 0 92 255 55.499477
-0.20813553 -0.7618334 0.4258116 186 255 70 142.52795
0.3815608 0.024036001 -0.35594803 146 255 110 132.54741
-0.3075089 -0.2892464 -0.38966435 74 255 182 114.08863
0.039449938 -0.0010018535 0.4258116 74 255 182 114.72365
0.5547908 -0.027316539 0.024547534 66 255 190 112.183
-0.23584674 0.5510678 -0.4102333 0 152 255 838.7743
0.3416598 0.014499671 0.4258116 142 255 114 131.42096
-0.3075089 0.65814215 -0.18371555 255 68 0 974.8575
-0.3075089 0.100645855 -0.12641777 255 76 0 204.11644
0.21090437 -0.07068888 -0.33905 0 104 255 58.601353
-0.2070981 0.29356703 -0.11857723 255 32 0 471.6973
-0.19301307 -0.30113688 -0.40307108 18 255 238 100.72695
-0.2070981 0.15509072 0.32145062 0 0 168 266.19748
-0.16580062 0.024036001 -0.37765417 162 255 94 136.62306
0.38170046 -0.07068888 -0.16514166 0 188 255 79.06308
0.43450937 -0.35486355 0.3923147 0 96 255 56.494152
0.2725913 -0.07068888 -0.23047946 0 156 255 71.83664
-0.3075089 0.47763017 -0.025588024 255 56 0 721.1744
-0.3075089 0.29991126 -0.10325525 252 0 0 480.1832
0.49691448 -0.12116361 0.30553013 0 152 255 70.68793
-0.27496964 0.0056017563 0.4258116 86 255 170 117.67231
0.12461854 -0.07068888 -0.3412645 0 92 255 55.693005
-0.2070981 0.5135211 0.010123336 0 0 136 770.7422
0.035380032 0.024036001 0.28300604 162 255 94 136.0456
-0.2070981 0.46506137 0.19077495 255 132 0 702.25635
-0.3075089 0.53802025 0.1679516 0 8 255 802.7616
0.43450937 -0.3108528 0.37306252 0 60 255 47.840965
0.23733877 -0.07068888 -0.30786738 0 116 255 61.83129
-0.00013182375 0.024036001 0.3526731 154 255 102 134.84096
-0.3075089 0.25689805 0.42349732 186 255 70 398.87637
-0.2070981 0.5774823 -0.19043885 2 255 254 864.7447
0.5296931 -0.7399278 0.35329157 50 255 206 108.66705
-0.3075089 -0.02450352 0.15965219 14 255 242 99.08934
-0.2070981 0.34601682 0.16037041 0 0 204 531.06903
0.0054144133 0.024036001 -0.20979083 198 255 58 145.46623
0.48665994 -0.11529817 0.4258116 0 200 255 82.67671
-0.02632681 -0.07068888 0.2623972 0 152 255 70.14352
-0.3075089 0.7032701 -0.25557718 0 0 188 1039.876
-0.19480862 -0.12816623 0.36111218 0 12 255 35.77807
-0.3075089 0.012504622 -0.09046699 142 255 114 131.94872
0.13760631 -0.07068888 0.40338725 0 116 255 61.263542
-0.078916274 -0.07068888 -0.37801328 0 104 255 58.81132
-0.3075089 -0.68901414 0.33489722 90 255 166 118.17303
0.20767239 -0.07068888 -0.21148661 0 172 255 75.43401
-0.113271 -0.07068888 0.043161333 0 192 255 80.65532
-0.2070981 0.33552286 -0.18453352 0 0 212 533.25916
-0.25358275 -0.07068888 -0.07318988 0 160 255 72.35045
-0.3075089 0.4552457 -0.29019126 255 124 0 704.87415
-0.2070981 0.33135325 0.27787876 140 0 0 508.70547
0.5547908 -0.63442963 -0.36702055 0 192 255 80.47791
-0.17625466 -0.07068888 -0.35852167 0 132 255 65.932365
-0.3075089 0.25153133 -0.40995398 178 255 78 396.6913
-0.25663516 -0.16010694 0.28984904 0 0 248 30.05055
-0.009189336 0.024036001 -0.39812335 174 255 82 139.51991
-0.3075089 0.5961959 0.124659054 82 255 174 884.5057
-0.3044365 -0.6255916 0.28984904 62 255 194 111.45101
-0.29055098 0.7624832 -0.26882428 2 255 254 1120.6766
0.4543202 -0.07068888 -0.087973185 0 200 255 82.57412
-0.021857897 0.024036001 0.15169196 162 255 94 136.58464
0.43450937 -0.36214548 0.38251904 0 100 255 57.421394
-0.2070981 0.64886516 0.41062927 255 168 0 949.12225
0.02035732 -0.07068888 -0.20615983 0 188 255 79.38548
0.2304758 0.024036001 -0.036999702 210 255 46 148.35382
-0.3075089 0.63216656 -0.40448758 255 160 0 951.7483
0.30934006 -0.07068888 0.37429944 0 144 255 68.79367
0.32847255 -0.07068888 -0.38076642 0 204 255 83.07115
0.21583213 0.024036001 -0.18754604 218 255 38 150.64082
0.5547908 -0.019815156 0.06069781 86 255 170 117.87985
0.43450937 -0.64234996 0.36649883 38 255 218 105.7991
0.41278332 0.024036001 0.073944926 218 255 38 150.18837
0.2636734 0.024036001 -0.36201298 162 255 94 136.42293
-0.2070981 0.5804749 0.42341754 0 216 255 854.08563
-0.29496005 -0.3952034 -0.4102333 255 232 0 165.60513
-0.3075089 0.476473 0.24891065 255 84 0 714.563
-0.19480862 -0.12816623 0.36111218 0 12 255 35.77807
0.12050874 -0.07068888 0.1223448 0 188 255 79.83111
-0.2070981 0.15509072 0.32145062 0 0 168 266.19748
-0.2070981 0.5104088 0.09533185 132 0 0 766.1992
-0.2070981 0.53285307 -0.22415517 0 24 255 806.00586
0.2119817 0.024036001 0.3478451 174 255 82 139.17732
-0.2070981 0.25623965 -0.34469596 238 255 18 411.33008
0.5547908 -0.533979 -0.307209 0 144 255 68.729004
-0.2070981 0.44381407 0.18812153 254 255 1 671.6856
-0.19480862 -0.28902698 0.41034997 0 92 255 55.157505
-0.3075089 0.081373684 0.10668367 255 136 0 189.69026
-0.3075089 0.36431143 0.28410333 0 32 255 552.43274
0.5437183 -0.27476236 0.4258116 0 92 255 55.499477
0.3238241 -0.07068888 -0.17820922 0 176 255 76.60238
0.35382962 0.024036001 0.2074336 186 255 70 142.72214
-0.3075089 0.008674131 0.060558155 118 255 138 125.38559
0.0054144133 0.024036001 -0.20979083 198 255 58 145.46623
-0.27606693 -0.07068888 -0.18178035 0 156 255 71.248024
-0.3075089 0.67180824 -0.3548308 212 0 0 1002.6841
0.2511046 0.024036001 -0.17769049 226 255 30 152.46555
-0.095195875 -0.07068888 0.119910836 0 192 255 80.263374
0.3322831 0.024036001 0.0790722 198 255 58 145.3613
-0.11620372 0.024036001 -0.04009203 178 255 78 140.19005
-0.2070981 0.6137922 0.16641542 182 255 74 909.8605
-0.3075089 0.7701641 0.13932265 22 255 234 1125.5968
-0.2070981 0.47802916 -0.17779025 255 24 0 729.6265
-0.2813538 -0.62160146 -0.2797771 224 0 0 231.30882
-0.21972679 0.20660287 -0.4102333 0 184 255 334.83636
0.34517112 -0.07068888 -0.23456933 0 148 255 69.848434
-0.17178577 0.024036001 0.12334232 166 255 90 137.78912
-0.3075089 -0.055805825 -0.31391236 0 188 255 79.60451
-0.2070981 0.15568922 -0.34890553 0 0 176 268.1846
0.5244461 0.024036001 0.22750378 226 255 30 152.59546
-0.2070981 0.40373355 0.11616015 26 255 230 614.1664
0.4081548 -0.07068888 -0.3501624 0 196 255 81.81782
0.52735895 0.024036001 -0.38298094 154 255 102 134.68369
-0.2070981 0.27824506 -0.0863971 255 124 0 448.73642
-0.2413531 -0.7862528 -0.32604226 0 0 240 284.7726
-0.2070981 0.17318581 -0.059144743 0 24 255 294.7913
-0.3075089 0.73636794 0.022193378 0 100 255 1081.3573
-0.27473024 -0.6720164 -0.2797771 156 0 0 248.86688
-0.11454784 0.024036001 0.35710213 154 255 102 134.17538
-0.19301307 -0.6493726 -0.3936744 212 0 0 234.20656
0.5547908 -0.09668436 0.31943563 0 196 255 81.28884
-0.2070981 0.049014006 -0.18285768 255 240 0 163.34464
-0.22341761 -0.57527643 0.4258116 86 255 170 117.20532
-0.22952245 0.45317087 -0.4102333 255 120 0 705.59607
-0.219228 -0.098021045 0.4258116 0 32 255 40.4191
0.45142737 -0.07068888 -0.15917645 0 192 255 80.908775
0.5272193 -0.22440735 -0.2979919 0 108 255 59.72307
-0.3075089 -0.08976154 0.36107227 0 104 255 58.15584
0.19765726 0.024036001 0.29493645 170 255 86 138.37639
0.35500672 0.024036001 -0.20655885 230 255 26 153.49106
-0.011144492 0.024036001 -0.1423183 190 255 66 143.74382
-0.3075089 0.053423062 -0.18656847 255 232 0 165.92752
-0.2070981 0.08570294 -0.21455899 255 124 0 192.78113
-0.29294503 -0.22941492 0.4258116 0 4 255 33.98079
-0.24841556 0.71865195 0.39265388 0 0 216 1046.514
-0.28420672 0.36562815 0.4258116 0 24 255 550.18774
-0.3075089 0.36223656 -0.21400037 0 112 255 572.5759
-0.2070981 0.49654323 0.17084442 212 0 0 746.5676
-0.24660006 0.6668804 -0.4102333 236 0 0 996.17676
0.5545514 -0.53433806 0.4258116 22 255 234 101.54647
0.37635374 0.024036001 -0.27313358 194 255 62 144.45341
-0.3075089 0.57738256 -0.088432044 0 240 255 860.72723
-0.1861102 0.009312546 0.4258116 98 255 158 120.5798
-0.2643161 -0.35444456 -0.2797771 78 255 178 115.95123
-0.3075089 0.100645855 -0.12641777 255 76 0 204.11644
0.5235883 0.024036001 -0.33258602 186 255 70 142.87073
0.42491323 -0.07068888 0.37346154 0 192 255 80.36876
-0.3075089 0.48106164 0.26137972 255 56 0 721.0994
-0.2070981 0.21368529 -0.26182166 0 252 255 351.18747
-0.3021821 0.7435701 -0.32013693 0 164 255 1097.9003
-0.29954863 -0.15683506 0.4258116 0 0 216 22.387589
-0.2806356 -0.07068888 -0.13966487 0 152 255 70.67732
0.5375735 -0.16633148 -0.4102333 0 188 255 79.661934
-0.3075089 0.027966246 -0.23073883 198 255 58 145.73923
0.42235953 -0.07068888 0.046513014 0 188 255 79.33816
-0.2070981 0.11604762 -0.111873865 255 8 0 221.37984
-0.3075089 -0.2892464 -0.38966435 74 255 182 114.08863
-0.3075089 0.56910306 0.26471147 0 180 255 845.99835
-0.3075089 0.07895968 0.015968828 255 148 0 186.31015
0.12234419 -0.07068888 0.16136794 0 176 255 76.18364
0.5139322 -0.10121312 -0.2979919 0 164 255 73.08055
0.5547908 -0.5776905 -0.40771952 0 96 255 56.302734
-0.06086108 0.024036001 0.31514627 154 255 102 134.77858
0.44254944 -0.5211508 -0.33978814 0 92 255 55.53837
0.2949757 -0.07068888 -0.04679539 0 212 255 85.26228
0.52011687 -0.28439844 -0.2979919 0 80 255 52.632824
0.52290994 -0.119547606 0.4258116 0 200 255 82.82978
-0.20693852 -0.08469412 -0.4102333 0 52 255 45.26406
-0.19480862 -0.47891563 0.38331705 10 255 246 98.04751
0.51247585 -0.062249828 0.4258116 0 252 255 95.00111
-0.2621016 -0.15398215 0.4258116 0 0 220 23.277605
0.50924385 -0.36098832 0.4258116 0 112 255 60.379635
-0.2070981 0.14407805 0.2736692 132 0 0 254.90662
0.14532714 -0.07068888 0.26024255 0 132 255 65.30527
0.44254944 -0.49691096 -0.3576239 0 68 255 49.06414
-0.19480862 -0.6185092 0.4213826 102 255 154 121.79879
-0.2070981 0.7259538 -0.1772915 0 52 255 1069.6001
-0.18425481 -0.09931783 -0.31201708 0 76 255 51.142147
-0.3075089 -0.37674922 0.36647886 0 188 255 79.57749
-0.20342723 -0.28244328 0.28984904 0 0 255 32.788906
-0.2070981 0.39794794 -0.22395566 54 255 202 621.3317
-0.265154 -0.34181592 0.4258116 0 172 255 75.31384
-0.18425481 -0.6084541 -0.34521466 255 48 0 211.2815
0.5547908 -0.76939464 -0.3166057 30 255 226 103.03256
-0.03322967 0.024036001 -0.24809575 190 255 66 143.73878
-0.3075089 -0.7653048 -0.35117987 0 56 255 302.7216
-0.17992556 -0.07068888 0.25214264 0 168 255 74.93857
-0.3075089 0.5677664 0.41970673 0 148 255 837.1215
0.5139322 -0.10121312 -0.2979919 0 164 255 73.08055
-0.3075089 0.32006124 -0.20183058 0 0 132 513.9596
-0.19480862 -0.36645478 0.3389871 0 148 255 69.21913
-0.04248669 -0.07068888 -0.27588674 0 164 255 73.37292
-0.25591692 -0.5860098 -0.4102333 224 0 0 231.81456
0.38032386 0.024036001 0.19460544 198 255 58 145.19547
-0.3075089 0.0068586366 -0.17725159 130 255 126 128.55293
0.46557227 -0.07068888 0.049725045 0 180 255 77.40696
0.5547908 -0.7133937 0.32075232 34 255 222 104.97254
0.5296931 -0.7399278 0.35329157 50 255 206 108.66705
-0.3075089 0.4103771 0.13878399 46 255 210 619.72687
-0.18638949 -0.07068888 0.051560488 0 176 255 76.71804
0.13926218 0.024036001 0.07572052 166 255 90 137.886
-0.2070981 0.5104088 0.09533185 132 0 0 766.1992
-0.2133825 -0.6916277 -0.2797771 196 0 0 238.76318
-0.26495454 -0.76899564 -0.2797771 0 0 212 277.6879
-0.253483 -0.2638295 -0.4102333 0 236 255 91.60649
-0.2067789 -0.07232483 -0.2797771 0 164 255 73.12508
-0.3075089 -0.558957 -0.2879568 255 36 0 214.10416
-0.3075089 0.4444525 -0.2191875 255 200 0 685.7043
0.14951673 0.00161166 0.4258116 98 255 158 120.04917
0.44767672 0.024036001 0.045834698 222 255 34 151.47133
-0.2070981 0.4201528 0.41240487 94 255 162 631.544
-0.3075089 0.7780445 0.016228184 78 255 178 1139.3699
-0.19935732 -0.6954582 0.4258116 150 255 106 133.41278
0.4532828 -0.43161306 -0.4102333 0 92 255 55.75833
-0.3075089 0.3636331 -0.107464805 0 92 255 567.8575
0.46196124 -0.3759512 0.4258116 0 128 255 64.21433
-0.2070981 0.3720522 0.41240487 0 76 255 563.22015
-0.3075089 0.17055233 0.31297165 0 8 255 290.10156
-0.21747237 0.6697134 0.4258116 255 56 0 977.19244
0.15807551 -0.07068888 -0.013996796 0 216 255 86.93235
0.45453966 -0.18231183 0.4258116 0 144 255 68.47585
-0.2070981 0.5860411 0.38461384 0 252 255 863.6884
-0.2813139 -0.3383246 -0.2797771 70 255 186 113.042274
-0.2070981 0.28119773 0.33429873 255 180 0 434.65604
-0.0120821595 -0.07068888 -0.39233774 0 80 255 52.03212
-0.17507759 0.024036001 0.14417063 166 255 90 137.57246
-0.2737527 -0.5604732 0.4258116 86 255 170 117.312065
0.15294823 0.024036001 0.3719852 170 255 86 138.34201
-0.30415723 0.6648255 0.4258116 255 84 0 970.7868
-0.24350773 -0.48278606 -0.4102333 255 140 0 188.25934
0.24294485 0.024036001 0.25491577 170 255 86 138.83467
-0.3075089 -0.0672175 0.15089394 0 148 255 69.9562
0.45288378 -0.7544916 -0.4102333 42 255 214 106.86577
-0.30415723 0.6648255 0.4258116 255 84 0 970.7868
-0.27626643 -0.772886 0.29258227 158 255 98 135.27501
-0.21639505 -0.7862528 -0.3814647 0 0 240 284.51837
-0.2070981 0.43186375 -0.28793684 254 255 1 671.71655
0.5211344 -0.18642163 0.4258116 0 144 255 68.51795
-0.2070981 0.16981417 -0.23263413 0 0 252 287.8862
0.06967492 -0.07068888 0.3554063 0 108 255 59.373386
-0.3075089 0.5058002 -0.121430136 136 0 0 765.1168
-0.29204726 -0.7862528 -0.331788 0 48 255 300.9951
-0.3075089 0.35581252 0.048308555 0 16 255 548.35944
0.08126614 -0.07068888 0.17062496 0 176 255 76.40389
0.35740075 -0.07068888 0.012277989 0 196 255 81.57368
0.5547908 -0.062988 -0.25214568 0 172 255 75.42663
-0.27247584 0.705345 0.4204449 0 0 136 1026.8706
-0.2070981 0.64886516 0.41062927 255 168 0 949.12225
0.061275765 -0.07068888 0.38419488 0 108 255 59.0891
-0.29631668 0.38312474 -0.4102333 6 255 250 609.922
-0.3075089 -0.0032363068 0.25673124 74 255 182 114.10196
-0.2070981 0.10788788 0.16436051 255 8 0 221.98378
-0.3075089 -0.1254729 -0.40698138 0 96 255 56.70517
0.2119817 0.024036001 0.3478451 174 255 82 139.17732
-0.2070981 0.30208588 0.05379494 255 20 0 474.3067
0.32839274 -0.07068888 0.23201258 0 124 255 63.238266
0.10871801 -0.07068888 0.38766629 0 112 255 60.480267
0.09335614 -0.07068888 0.1636024 0 176 255 76.735504
0.17339748 0.024036001 0.41491863 174 255 82 139.242
-0.2070981 0.0736728 0.19219144 255 144 0 187.05159
-0.3075089 -0.28248322 0.30483186 0 0 232 26.62848
0.25128415 -0.07068888 -0.1342982 0 196 255 81.472015
0.35161513 0.024036001 -0.027622975 222 255 34 151.53915
0.31281143 -0.07068888 -0.041727968 0 208 255 84.36544
-0.19480862 -0.6565348 0.36987045 106 255 150 122.06264
-0.3075089 0.66873586 -0.25916824 248 0 0 993.24585
0.08996455 -0.07068888 0.119551726 0 192 255 80.88742
-0.3075089 0.43419796 0.24182823 182 255 74 653.6894
-0.2070981 0.29687878 0.028796988 255 44 0 468.36624
0.23121397 -0.07068888 -0.11197361 0 204 255 83.10436
-0.3075089 0.07895968 0.015968828 255 148 0 186.31015
-0.3075089 0.38186786 0.0061132894 0 168 255 586.6949
-0.06578885 0.024036001 -0.3368554 178 255 78 140.91693
-0.18369618 -0.010617984 0.4258116 30 255 226 103.6232
0.43450937 -0.11741291 0.31372976 0 136 255 66.18094
-0.3075089 0.47176474 -0.06796285 255 80 0 715.18854
0.4494323 -0.3859464 0.4258116 0 136 255 66.24181
-0.2070981 0.23878299 -0.24931271 162 255 94 392.57864
0.13178077 -0.07068888 0.03147035 0 216 255 86.02509
-0.2070981 0.17955 0.012238087 0 76 255 307.38516
-0.30603254 -0.7862528 -0.369255 0 96 255 312.0058
-0.1171813 0.024036001 -0.15369007 190 255 66 143.93275
-0.18425481 -0.5603735 -0.2833682 255 156 0 184.85977
0.48382697 -0.49076626 -0.4102333 0 80 255 52.42022
-0.22784662 -0.5938304 0.28984904 18 255 238 100.411896
0.19402626 0.024036001 -0.14606899 214 255 42 149.90187
0.41966623 -0.07068888 -0.35882092 0 200 255 82.75974
-0.2267294 -0.772886 0.3098594 114 255 142 124.84742
0.3420389 0.024036001 -0.075583935 234 255 22 154.0539
-0.19301307 -0.7143114 -0.39074168 0 0 128 256.41718
-0.29180786 -0.4890505 0.28984904 0 208 255 84.42489
-0.3075089 0.3145948 0.2133988 244 0 0 482.4639
0.1787442 -0.07068888 0.40548205 0 116 255 61.577057
0.16258432 0.008793834 0.4258116 122 255 134 126.04446
0.25772813 0.024036001 -0.24340738 210 255 46 148.09811
-0.2070981 0.6500821 0.18804173 255 128 0 959.2021
0.53348374 -0.056085132 0.4258116 6 255 250 97.14797
-0.2070981 0.30120805 0.15715837 255 48 0 467.84235
-0.03322967 0.024036001 -0.24809575 190 255 66 143.73878
0.1412772 -0.028134508 0.4258116 2 255 254 96.51352
-0.3075089 0.41021746 -0.054935187 86 255 170 629.14795
0.08126614 -0.07068888 0.17062496 0 176 255 76.40389
-0.3075089 0.35325885 -0.34665114 0 88 255 566.8178
-0.23057984 -0.20852676 -0.2797771 0 72 255 50.762123
0.37264293 -0.07068888 0.15207101 0 152 255 70.28888
0.31616312 0.024036001 -0.14604904 246 255 10 157.2822
-0.3075089 0.47473735 0.13998103 255 92 0 712.37866
-0.2070981 0.07993725 -0.0680626 255 140 0 188.407
-0.19480862 -0.726561 0.39726242 154 255 102 134.08994
-0.3075089 -0.61607516 0.3218097 46 255 210 107.37211
-0.2287444 0.48770514 -0.4102333 184 0 0 753.0389
-0.2070981 0.5217407 -0.40001866 0 0 244 797.62744
-0.139865 0.024036001 -0.36281103 166 255 90 137.85074
-0.3075089 0.19227843 0.15147251 0 128 255 320.89957
-0.26158288 -0.07068888 0.16759248 0 164 255 73.13976
-0.089729436 0.024036001 0.21796747 162 255 94 136.05911
0.47311357 -0.13263513 -0.2979919 0 160 255 72.58919
0.38948113 0.024036001 -0.08964903 238 255 18 155.61703
-0.3075089 0.347553 0.12198569 0 0 212 533.02466
-0.26295948 -0.31875318 -0.2797771 18 255 238 100.819565
-0.2070981 0.5260899 -0.10367421 0 0 216 790.9427
-0.19480862 -0.25002375 0.30706632 0 0 228 25.917656
0.5547908 -0.37024537 0.32992956 0 96 255 56.47447
0.016905889 -0.07068888 -0.32670063 0 128 255 64.832794
-0.26038584 -0.37339756 0.28984904 0 124 255 63.406044
-0.3075089 0.024454962 0.059720233 170 255 86 138.09058
0.5547908 -0.53028816 0.3628279 10 255 246 98.84619
0.5547908 -0.02077278 -0.14383453 90 255 166 118.73952
0.017105397 0.024036001 -0.026326194 182 255 74 141.57617
0.5235883 0.024036001 -0.33258602 186 255 70 142.87073
-0.2070981 0.6973847 -0.19600505 0 0 148 1029.4708
-0.2070981 0.49516663 0.4125046 252 0 0 736.8126
0.1687091 -0.07068888 -0.2796574 0 144 255 68.891174
-0.3075089 0.7032701 -0.25557718 0 0 188 1039.876
0.4532828 -0.43161306 -0.4102333 0 92 255 55.75833
-0.3075089 0.61018115 -0.043523513 162 255 94 904.41144
0.43656427 0.024036001 -0.26387656 202 255 54 146.60672
-0.3075089 0.41021746 -0.054935187 86 255 170 629.14795
-0.19480862 -0.77140963 0.29960486 110 255 146 123.74907
0.16819039 -0.07068888 -0.32227162 0 108 255 59.495056
0.5317879 -0.22161427 0.4258116 0 120 255 62.520676
-0.2070981 0.12917505 0.27027762 192 0 0 239.93678
0.5398679 -0.19607766 -0.2979919 0 120 255 62.381912
-0.3075089 -0.62563145 -0.37384364 128 0 0 255.76738
-0.3075089 0.5089325 -0.18375544 0 0 144 772.5457
-0.18425481 -0.6794778 -0.33104983 208 0 0 235.34741
-0.3075089 -0.64949226 0.3895416 110 255 146 123.17743
-0.30439663 0.7866232 0.1928099 106 255 150 1146.9144
0.027699102 0.024036001 -0.12123063 190 255 66 143.24432
0.5547908 -0.27366507 -0.32470557 0 88 255 54.06517
-0.3075089 0.0029283916 0.28206837 94 255 162 119.18219
0.43786106 0.013961009 0.4258116 134 255 122 129.67163
-0.3075089 0.7268515 -0.04675549 0 48 255 1068.1077
-0.28225157 0.80507743 -0.033408616 230 255 26 1177.5999
0.44544226 -0.7156082 -0.2979919 70 255 186 113.07294
-0.21176651 0.6503016 -0.4102333 255 76 0 972.2102
0.51572776 -0.39490417 0.30553013 0 112 255 60.554356
-0.25591692 -0.5860098 -0.4102333 224 0 0 231.81456
0.017963266 -0.07068888 0.42249984 0 104 255 58.79925
-0.2070981 0.0736728 0.19219144 255 144 0 187.05159
-0.18425481 -0.5603735 -0.2833682 255 156 0 184.85977
-0.20119277 -0.31905243 0.28984904 0 72 255 50.586945
-0.2070981 0.5104088 0.09533185 132 0 0 766.1992
0.5346009 -0.07068888 -0.19907741 0 176 255 76.462166
0.40193024 -0.010119223 0.4258116 58 255 198 110.74993
-0.097829334 0.024036001 0.18327355 166 255 90 137.09804
-0.24967246 0.7728175 0.2490104 26 255 230 1126.455
-0.2070981 0.5609633 0.11272866 0 148 255 837.1091
-0.3075089 0.0343504 -0.3812253 202 255 54 146.53317
0.12523702 -0.07068888 0.18038075 0 168 255 74.479095
-0.2070981 0.057612658 0.0036593806 255 220 0 168.38106
-0.19480862 -0.25002375 0.30706632 0 0 228 25.917656
-0.3075089 -0.23633774 -0.31848106 0 172 255 75.65118
0.3554057 -0.029710595 -0.4102333 0 232 255 90.27239
-0.2070981 0.7682089 -0.07139433 30 255 226 1127.7054
0.37409934 0.024036001 -0.33741406 158 255 98 135.3008
-0.2070981 0.4533305 -0.026405994 255 188 0 688.1658
-0.28221166 -0.4992851 -0.4102333 255 76 0 204.25049
0.4441255 -0.63337225 -0.2979919 0 236 255 91.99011
0.43450937 -0.40884954 0.31079707 0 132 255 65.62813
0.5438779 -0.33399534 0.30553013 0 52 255 45.99512
-0.09633305 0.024036001 0.23751892 158 255 98 135.63376
0.5547908 -0.16317932 0.41412058 0 164 255 73.145935
-0.2070981 0.5539607 0.24930966 0 100 255 825.579
-0.3075089 0.07062038 -0.012700015 255 180 0 178.15523
-0.3075089 0.73644775 0.13958201 0 92 255 1079.2648
0.42481345 0.024036001 0.26325506 198 255 58 145.04245
-0.3075089 0.76467764 -0.035323862 6 255 250 1121.1616
