ply
format ascii 1.0
element vertex 873
property float x
property float y
property float z
property uchar red
property uchar green
property uchar blue
property float weight
end_header
0.8544255 0.024926458 -0.2506072 242 255 14 156.776
-0.05771872 -0.08395943 0.08384641 0 168 255 74.7547
0.94465685 -0.11060264 0.21164383 0 244 255 93.87161
0.05607175 0.337106 -0.3170867 0 0 220 535.8241
0.5074213 -0.05804442 -0.24795143 0 184 255 78.73371
0.8914989 -0.03161539 0.29737756 70 255 186 113.18656
0.35645032 -0.15994826 -0.39783016 0 204 255 83.44391
-0.046688776 -0.085180216 0.045894843 0 168 255 74.74595
0.5713522 0.09209132 -0.12942772 255 48 0 211.72546
0.8682183 -0.21640444 0.30952123 0 128 255 64.71386
0.39654362 -0.09042748 0.22200984 0 88 255 54.2751
0.78096396 -0.13184868 -0.3338779 2 255 254 96.8693
0.26397014 -0.12060455 -0.24953632 0 48 255 44.921417
-0.27324167 -0.14054412 0.26542285 0 28 255 39.5848
-0.5363969 -0.27262503 -0.4142573 230 255 26 153.85942
0.53447145 -0.096167326 0.1801603 0 124 255 63.381023
0.5495065 0.09069918 0.13426289 255 4 0 222.16328
-0.76524144 -0.13326222 -0.20096172 202 255 54 146.38908
0.5145319 0.14661993 -0.12672913 0 0 188 271.5914
0.099377654 -0.091112845 -0.040417142 0 172 255 75.9388
-0.15364711 0.37426513 -0.12552977 0 156 255 583.8179
-0.30536774 -0.22833392 -0.23552936 0 144 255 68.54128
0.46171668 -0.03724816 0.12096272 0 252 255 95.00701
-0.43524262 -0.31066227 0.27748084 0 100 255 57.87888
-0.020623844 -0.08571566 -0.21771012 0 148 255 69.54587
0.7867038 -0.23944952 -0.31948543 0 120 255 62.703438
-0.051250678 -0.0055932915 -0.29166427 86 255 170 117.637634
-0.35833287 -0.10655477 -0.33334246 0 116 255 61.05991
-0.81435144 -0.010604955 -0.11180122 110 255 146 123.12246
0.09957042 -0.10045081 0.10530662 0 136 255 66.73183
0.49806193 0.09673888 -0.04193778 255 0 0 223.75452
-0.15238349 -0.0818177 0.21678402 0 160 255 72.58192
-0.0136203645 0.23423837 0.049300205 122 255 134 382.19104
-0.7211859 0.22999774 -0.31539473 0 128 255 320.85385
0.67955273 0.032658126 0.24524768 255 248 0 161.05022
0.8448305 -0.07978305 0.16223396 0 244 255 93.62898
0.64444965 0.08915714 0.019273054 255 16 0 219.90886
0.49170098 0.1156076 0.014496982 160 0 0 247.06381
-0.41872984 -0.16001251 0.33796346 0 0 160 8.595261
0.55259055 0.0024382214 0.1838655 154 255 102 134.81665
-0.5882697 -0.0033230511 -0.3193355 0 244 255 93.36515
0.92266124 -0.07549957 0.32509163 30 255 226 103.97695
0.7902805 -0.11874125 0.33288756 0 208 255 84.62532
-0.64014256 -0.08513739 0.20982336 0 156 255 71.12511
-0.33633724 0.20616022 -0.3353771 0 172 255 331.79846
-0.4523123 -0.10445585 0.39281335 0 32 255 40.346615
0.033476427 0.36402762 -0.13364694 0 104 255 570.5059
0.56242114 -0.12653716 0.014668321 0 92 255 55.694508
-0.16433439 0.19620113 -0.3327642 0 156 255 327.3412
0.7334388 -0.1720919 -0.28523907 0 176 255 76.27266
0.5492281 0.16711636 0.040497668 0 64 255 304.82855
-0.4523123 0.22905537 0.32779023 62 255 194 367.93253
0.7312971 -0.23726495 0.32275712 0 104 255 58.655014
-0.39630586 -0.03686265 -0.2851534 0 220 255 87.53464
-0.8410375 0.12552384 0.03379403 255 140 0 188.35905
0.8441666 0.038569316 -0.38562223 255 216 0 169.93558
0.7271849 -0.25431317 -0.3568159 0 76 255 51.387894
-0.5524171 -0.11747762 0.28846794 0 40 255 42.095806
0.62014097 -0.06757516 -0.30766305 0 200 255 82.635765
-0.3112789 0.016209587 0.30375996 142 255 114 131.12659
-0.46539828 -0.29751202 0.4204846 0 88 255 54.4586
0.8994876 -0.044572897 0.35890967 62 255 194 111.86574
-0.21631433 0.33215857 -0.34615004 0 0 228 537.09436
0.8644274 -0.17329128 -0.24726608 0 228 255 89.146355
0.6314279 -0.052047558 -0.09503143 0 224 255 88.22656
-0.56244034 0.009248944 -0.38806382 34 255 222 104.40469
-0.11254718 0.22881977 -0.33706906 94 255 162 375.5946
0.62273246 -0.09704545 0.17170043 0 164 255 73.75935
0.3907181 -0.13022096 0.2821284 0 96 255 56.196896
0.39226013 -0.15731393 -0.1422139 0 16 255 36.418076
0.5830675 0.09339778 0.026983306 244 0 0 226.961
0.55841607 0.12046933 0.07913459 140 0 0 252.94902
-0.8122954 0.036191992 -0.14476256 86 255 170 117.34277
-0.22353196 0.088171944 -0.31678683 255 100 0 198.4215
0.6053201 0.20005625 -0.046221253 0 216 255 342.38797
-0.0031044378 0.36730447 -0.11092312 0 120 255 574.2035
-0.7576382 0.17955984 -0.30048823 140 0 0 252.83446
0.66886544 -0.012618185 0.30821475 58 255 198 110.04727
0.057206865 0.20746668 0.32042268 0 204 255 339.08694
0.8273325 -0.24236228 -0.33546278 0 140 255 67.52835
-0.083291054 -0.091391265 -0.27397352 0 108 255 59.65857
-0.3700696 -0.050398424 -0.27058956 0 188 255 79.99807
-0.52729446 0.36552683 0.27934414 0 8 255 546.3322
-0.2646533 -0.1814513 -0.26469982 0 76 255 51.286015
0.8127473 0.16645241 -0.037504382 0 8 255 290.8371
-0.3332103 -0.02885255 -0.31408823 10 255 246 98.59382
-0.28906915 -0.08852133 -0.3765199 0 52 255 45.15772
-0.39630586 -0.03686265 -0.2851534 0 220 255 87.53464
0.7880531 0.18341498 0.09466218 0 92 255 311.72903
-0.4513699 -0.15187392 0.34113324 0 0 176 12.04227
-0.6544708 0.13845992 0.30716532 140 0 0 252.66473
-0.44363824 -0.07978305 -0.19367982 0 128 255 64.35479
-0.08684634 -0.07104476 0.27356148 0 148 255 69.910904
0.062347036 -0.09494654 -0.062477034 0 164 255 73.649994
0.8140538 -0.07549957 -0.28344 66 255 190 112.114685
0.83078074 0.031201746 0.32515588 218 255 38 150.3497
0.10261168 -0.16453157 0.26893532 0 0 244 29.64387
0.75027287 -0.20417513 0.29133785 0 120 255 62.254215
-0.2525739 -0.097944975 -0.03442028 0 92 255 55.375942
-0.40662906 -0.15731393 -0.001651713 0 92 255 55.075172
-0.3709263 -0.15731393 0.02694047 0 48 255 44.74954
-0.7995521 0.3035878 -0.2852819 255 240 0 419.3564
0.2889642 0.18804112 -0.257525 0 140 255 323.28424
-0.8440359 0.29484951 -0.0034079368 255 188 0 432.21252
0.6729347 -0.23859283 -0.35223258 0 88 255 54.202785
0.6077189 -0.0015454092 -0.38673595 82 255 174 116.68141
0.7880531 0.18341498 0.09466218 0 92 255 311.72903
-0.43483573 -0.28648207 0.29611394 0 56 255 46.721077
-0.06769922 -0.1783672 -0.4069754 0 112 255 60.263058
-0.25906336 -0.08989204 0.03287308 0 108 255 59.603336
0.4141487 -0.07699879 0.12715232 0 144 255 68.48042
-0.46531263 -0.1464339 0.35361958 0 0 172 11.590087
0.80137473 -0.06637578 -0.29222113 66 255 190 112.98201
-0.5513462 -0.0426025 0.3472158 0 160 255 72.86392
0.06219711 0.36160746 -0.13103403 0 88 255 566.8011
0.055750486 -0.09490371 -0.08588621 0 164 255 73.900734
0.6609624 -0.17843145 0.27439672 0 128 255 64.968925
0.17198254 -0.17881696 -0.3875284 0 184 255 78.335106
-0.15341151 -0.17736058 -0.32552513 0 12 255 35.510193
0.36600247 0.027132446 0.24852453 198 255 58 145.3336
0.4759378 -0.0945182 -0.048427243 0 128 255 64.531334
0.3390166 -0.16403897 0.3891724 0 112 255 60.16807
0.8131542 -0.11225178 8.3093655e-05 0 216 255 86.99141
-0.5862565 -0.1440994 0.3664914 0 0 248 30.740667
-0.5848001 -0.19027525 0.40131608 0 0 244 29.740301
-0.5918678 -0.1543369 -0.31091848 102 255 154 121.81205
-0.41294715 -0.111630686 0.30405977 0 32 255 40.401035
-0.27602595 -0.1135154 0.33102426 0 68 255 49.91067
-0.08009987 0.31909397 0.3346652 200 0 0 493.92657
0.41434148 -0.084109366 0.1485911 0 116 255 61.507473
0.93662536 -0.01242543 -0.35011226 194 255 62 144.40158
-0.3236796 -0.15731393 -0.03215004 0 28 255 39.457584
0.13435222 -0.09653142 0.0828398 0 148 255 69.54406
0.91612893 -0.11154501 0.2674789 0 240 255 92.372406
-0.3831342 -0.0938971 -0.2720031 0 108 255 59.773003
0.9141157 -0.12583038 0.1109608 0 232 255 90.648865
-0.7455803 -0.13351923 -0.20207544 186 255 70 142.33524
-0.47443643 -0.032022323 -0.27388784 0 204 255 83.08077
-0.15238349 -0.0818177 0.21678402 0 160 255 72.58192
0.16341558 -0.09396134 0.21691251 0 96 255 56.214527
0.63099957 -0.19837102 -0.23653598 0 88 255 54.931873
-0.58000267 -0.20199056 0.42448962 0 12 255 35.110634
-0.7735514 0.3502134 -0.27725038 160 0 0 503.9259
0.58341014 -0.04515117 -0.2209013 6 255 250 97.97086
-0.52001256 -0.26572862 0.40523544 0 76 255 51.048836
0.026066016 0.21288526 0.0015394747 14 255 242 355.33063
0.75530595 -0.08228889 0.33781356 0 240 255 92.593605
0.8268828 0.058937237 0.32481322 255 184 0 177.2049
-0.018546361 -0.08573707 0.18206644 0 152 255 70.210556
0.84099686 -0.10899635 -0.116684385 2 255 254 96.553345
0.3936737 0.12792256 -0.25870296 140 0 0 252.54494
-0.30110568 -0.097944975 -0.08610039 0 68 255 49.308655
0.022574985 -0.0916911 -0.019171119 0 164 255 73.81942
0.7867038 -0.23944952 -0.31948543 0 120 255 62.703438
0.80735016 0.036106322 -0.026196016 254 255 1 159.95157
0.29027066 0.06831804 -0.2845751 255 140 0 188.32076
-0.26407504 -0.08121802 0.22487977 0 148 255 69.04269
0.003235103 -0.08672227 -0.17613901 0 164 255 73.04888
0.41536948 0.20453249 -0.14367028 0 224 255 344.7294
0.31314442 0.31720927 0.11892806 164 0 0 502.35458
0.067679964 0.36032242 -0.20295355 0 84 255 565.8453
0.086077474 -0.0956319 0.113016866 0 144 255 68.87941
0.10160507 -0.09809489 -0.23771393 0 112 255 60.704502
0.06671618 0.35980842 -0.260245 0 84 255 565.823
0.6913323 -0.05977923 -0.08843488 0 212 255 85.83784
-0.25430873 0.31733775 -0.33257145 0 0 128 512.96655
0.9338839 -0.009791096 0.34271812 106 255 150 122.940445
0.7148485 -0.019407492 0.11957058 46 255 210 107.18073
0.7867038 -0.23944952 -0.31948543 0 120 255 62.703438
-0.41845143 0.06279236 0.35059974 255 184 0 177.75163
-0.23085673 -0.13921624 0.40178722 0 0 216 22.495712
0.24028252 0.34368113 -0.033049572 0 0 244 541.3961
-0.36542204 0.37426513 0.2700704 0 80 255 564.73193
0.7239724 0.023127398 0.4003094 174 255 82 139.53337
0.41380602 0.05452526 -0.010796928 255 184 0 177.28505
0.15598376 0.35304052 0.015760606 0 36 255 553.31116
-0.48859334 -0.17374104 0.28103614 0 8 255 34.12957
0.6518386 -0.097944975 0.042403813 0 164 255 73.59801
-0.40791407 -0.1582777 0.37692168 0 0 172 11.263561
0.6214046 -0.089013934 0.33076724 0 216 255 86.4469
-0.43896928 0.035271045 0.40000957 210 255 46 148.41469
-0.5027931 -0.08610117 0.19703719 0 40 255 42.25886
0.7430123 -0.045857936 -0.2807414 50 255 206 108.01018
-0.26195472 0.30650055 0.31453288 255 40 0 469.69513
0.83619934 -0.14122948 -0.30248 14 255 242 99.57203
-0.70544416 -0.019043397 -0.27988473 82 255 174 116.80323
-0.7995092 0.3458871 -0.17789522 172 0 0 500.27158
0.37214923 0.20161973 -0.18566974 0 208 255 340.57568
-0.37433165 -0.04043935 0.26088238 0 208 255 84.47408
-0.42502657 -0.2947063 -0.40808907 194 255 62 144.64847
0.101048216 -0.09115567 0.18611434 0 128 255 64.02683
0.16371544 -0.010369363 0.27947265 46 255 210 107.97494
0.0577423 0.36100778 -0.21959484 0 92 255 567.29926
0.22469068 0.3408326 0.15996373 0 0 216 534.1948
0.032084294 -0.17808877 -0.35159007 0 88 255 54.005733
0.030606499 0.051312655 0.12935832 255 252 0 160.92203
0.10929391 0.040668223 0.016981395 238 255 18 155.17558
-0.44413084 -0.3119259 -0.38399455 226 255 30 152.48607
-0.68747497 -0.20102677 0.37724292 0 92 255 55.14935
-0.22974302 0.36640495 -0.2899723 0 152 255 582.2081
-0.43145177 -0.0798473 -0.1793516 0 112 255 60.33938
-0.26493177 -0.042880923 -0.36979482 0 224 255 88.08165
-0.21995527 -0.097944975 -0.07622699 0 104 255 58.03142
-0.80518484 0.0093346145 -0.07494194 74 255 182 114.30924
0.63099957 -0.19837102 -0.23653598 0 88 255 54.931873
0.66016996 -0.097944975 0.003959637 0 164 255 73.40548
0.31901276 0.09326928 0.26942793 255 64 0 207.70457
-0.41845143 0.06279236 0.35059974 255 184 0 177.75163
-0.282751 0.27499563 0.3296107 255 228 0 422.64758
0.18926634 0.34372395 0.21847598 0 0 220 535.1132
-0.14186756 0.37413663 0.127495 0 120 255 574.1389
-0.71608853 -0.07813391 0.10644174 0 252 255 95.70922
-0.65425664 0.17596172 -0.3204492 0 0 136 258.70065
0.51678073 0.12550241 -0.07511328 136 0 0 253.09795
-0.17240871 -0.09897301 0.18819182 0 124 255 63.388844
-0.56766623 -0.07348635 -0.3385469 22 255 234 101.865486
-0.14589402 0.25760472 0.32804722 206 255 50 403.07028
0.9523671 -0.0990801 -0.056587256 50 255 206 108.207
0.7238866 -0.07579942 -0.0196423 0 212 255 85.5927
0.38024503 0.19489469 0.20701769 0 192 255 336.3006
-0.06656409 0.37165222 0.18035306 0 116 255 573.57153
0.8073073 0.045744136 -0.035062805 255 216 0 169.46863
-0.7735514 0.3502134 -0.27725038 160 0 0 503.9259
-0.010472012 -0.08610117 -0.09629506 0 172 255 75.878044
-0.2543944 0.017044866 0.2963067 138 255 118 130.446
0.81636685 -0.09231222 0.29133785 0 236 255 91.711266
0.46308738 -0.08151785 0.23554562 0 124 255 63.906765
0.024609637 0.3588232 -0.2827975 0 88 255 566.1962
-0.5677733 -0.05401796 -0.29434144 0 252 255 95.12578
0.55085576 0.09858078 0.066605434 224 0 0 231.97382
-0.37863654 -0.11822722 -0.2918356 0 128 255 64.86014
0.34850445 0.21166447 -0.14107879 14 255 242 355.2185
-0.23250584 -0.11231603 0.3632788 0 52 255 45.91954
-0.3503656 -0.08314558 0.23781586 0 108 255 59.391598
0.8140538 -0.07549957 -0.28344 66 255 190 112.114685
-0.35509887 0.37638542 0.18585733 0 100 255 569.331
-0.27561903 -0.08078966 -0.14990273 0 124 255 63.850643
-0.39435688 -0.12795071 0.37527254 0 0 255 32.257812
0.03898069 0.026190082 0.06761205 186 255 70 142.87915
0.6834935 0.11543625 0.07624325 168 0 0 245.25911
0.10755909 -0.091455504 -0.097858526 0 172 255 75.77057
-0.29960647 -0.20224756 0.31534675 0 0 184 14.57839
-0.58805555 -0.08830716 -0.002936755 0 192 255 80.863235
0.23848346 0.11239498 -0.2955408 228 0 0 230.9787
-0.5439786 -0.23777895 -0.29744694 118 255 138 125.527214
-0.37878647 0.010341231 -0.39624524 118 255 138 125.18507
-0.8229398 0.14475663 -0.010175825 255 60 0 208.16222
-0.8032786 -0.010861962 -0.101627976 94 255 162 119.97866
0.0007078526 0.11669988 -0.32224825 212 0 0 234.21448
0.18963043 -0.030651608 0.27306888 0 232 255 90.93687
-0.84810525 0.24618927 0.18617858 122 255 134 382.89084
-0.06877008 0.021949442 -0.30080947 174 255 82 139.87129
-0.27666846 -0.15731393 0.13676871 0 0 212 21.9589
-0.4266757 -0.10154309 -0.28140536 0 156 255 71.807175
-0.41260448 -0.21134993 0.28913188 0 0 204 19.409372
0.29986563 0.025954492 0.26619387 182 255 74 141.65831
0.3950658 -0.13934475 -0.37634853 0 196 255 81.494934
-0.33805063 0.079712085 -0.326596 255 156 0 184.58218
0.8378485 -0.24908733 0.33991244 0 104 255 58.772385
-0.45351166 -0.1999559 -0.33295694 22 255 234 101.15487
-0.3553987 -0.08031848 -0.19517905 0 104 255 58.29172
-0.8229398 0.14475663 -0.010175825 255 60 0 208.16222
-0.362702 0.009463117 -0.23747835 130 255 126 128.94423
0.033240832 0.20029184 0.19341765 0 168 255 330.9153
0.6181277 -0.17997348 -0.2800989 0 100 255 57.767403
-0.5221115 -0.08725771 -0.11985416 0 176 255 76.82097
-0.38086393 -0.15731393 0.1051567 0 32 255 40.094986
-0.5137801 -0.2802496 -0.34497207 162 255 94 136.88951
-0.065793075 -0.0639342 0.2753391 0 164 255 73.04355
-0.20082957 -0.08132511 -0.20464553 0 144 255 68.78846
-0.41260448 -0.21134993 0.28913188 0 0 204 19.409372
-0.53440505 -0.2765444 -0.24625947 122 255 134 126.75459
0.14604609 -0.018722134 0.039319713 74 255 182 114.01663
0.086098894 0.09187714 0.16270515 255 104 0 197.93494
0.5901995 0.07791302 0.16495398 255 56 0 209.9608
-0.25430873 0.31733775 -0.33257145 0 0 128 512.96655
0.111028716 0.006057757 0.14546417 110 255 146 123.30627
-0.31704018 -0.26440078 0.40123037 0 48 255 44.702404
-0.4503633 -0.29626977 0.37730718 0 76 255 51.560608
-0.39909014 0.059665427 -0.35897905 255 232 0 165.41241
0.3390166 -0.16403897 0.3891724 0 112 255 60.16807
0.41303498 -0.06682555 0.027240314 0 200 255 82.88789
-0.79803145 -0.07770557 0.15604435 50 255 206 108.10775
-0.65920407 0.3639848 -0.25698957 0 4 255 545.7945
0.07521888 -0.09811632 0.2265289 0 100 255 57.367626
0.6213403 -0.040075254 -0.32462558 0 236 255 91.60244
-0.28469995 -0.0889711 -0.0942604 0 100 255 57.09978
-0.8367755 0.22650671 0.19468129 10 255 246 354.6675
0.17174695 -0.038126267 0.14674921 2 255 254 96.13918
0.49358574 0.13541865 0.0058871997 0 0 176 268.22385
0.25957957 0.19889973 0.282621 0 192 255 336.27408
0.04009439 0.02368425 0.2965851 158 255 98 135.84167
-0.14186756 0.37413663 0.127495 0 120 255 574.1389
-0.26366812 -0.039111473 -0.33916798 0 244 255 93.51212
0.44398308 -0.098801665 -0.32552513 0 180 255 77.5337
-0.57696134 -0.06556192 0.30181098 0 72 255 50.97793
0.41515532 0.0481643 -0.24709474 255 200 0 173.56741
-0.13848361 0.07667081 -0.31539473 255 140 0 188.48207
-0.68747497 -0.20102677 0.37724292 0 92 255 55.14935
-0.11961491 0.18602788 0.32588407 0 64 255 304.28882
-0.5394381 -0.07920478 0.08288263 0 112 255 60.49681
-0.8267735 0.10074393 0.24972391 255 180 0 178.75679
0.38249382 -0.14182916 0.34237546 0 116 255 61.466396
-0.52436036 0.044095 0.33819905 246 255 10 157.90733
-0.3249432 -0.25863948 -0.41781256 34 255 222 104.18605
0.6318991 0.121668704 -0.13613138 168 0 0 245.85844
-0.78704435 -0.06956696 -0.25945255 186 255 70 142.4653
-0.38842428 -0.097944975 -0.10096404 0 60 255 47.145164
0.13043284 -0.09250496 -0.15264414 0 156 255 71.62036
-0.5847359 -0.02461191 0.39234215 0 212 255 85.67278
0.6671521 0.08521634 -0.12846394 255 68 0 206.21117
-0.6826561 -0.087536134 -0.03958187 30 255 226 103.496666
-0.39127278 -0.098737426 0.26987767 0 60 255 47.97187
0.61506504 0.021671018 0.15490922 234 255 22 154.92732
0.46996236 0.09438298 -0.032942485 255 12 0 220.72897
-0.28874785 -0.09308323 -0.3510332 0 56 255 46.143044
0.9393025 -0.12745811 -0.19845591 54 255 202 109.53368
0.46467227 -0.097944975 -0.19087416 0 92 255 55.54455
-0.33004054 -0.097944975 -0.1417213 0 60 255 47.400444
-0.46462727 -0.08676512 -0.17508955 0 144 255 68.771255
0.76096016 0.047971543 0.2561491 255 204 0 172.27097
0.5207001 0.078212865 0.1654894 255 60 0 208.72849
-0.59002596 -0.111887686 -0.26412153 54 255 202 109.59541
-0.800987 -0.02893822 0.10314346 34 255 222 104.62542
-0.5417726 -0.15476526 0.26964208 0 52 255 45.94861
-0.24002336 0.15227412 0.318645 0 0 160 264.2995
0.9288937 -0.102678224 0.15330292 2 255 254 96.65169
0.76096016 0.047971543 0.2561491 255 204 0 172.27097
-0.129831 0.37400812 -0.09978609 0 152 255 582.3191
0.77914345 -0.08308132 -0.27560124 34 255 222 104.62125
0.64978254 -0.01951458 0.39058596 46 255 210 107.87477
0.7421129 -0.12019763 0.33449388 0 200 255 82.44897
-0.37383905 0.14443536 -0.33025834 180 0 0 242.51068
0.14189114 -0.04279526 -0.28453228 0 220 255 87.98442
-0.17073818 0.30759287 0.33530772 255 20 0 474.01547
0.8127473 0.16645241 -0.037504382 0 8 255 290.8371
0.26225674 -0.098865926 -0.002229982 0 152 255 70.720764
-0.8059773 -0.05551717 0.23188326 10 255 246 98.36242
-0.2223326 -0.0900848 0.033686943 0 124 255 63.55903
-0.46137184 -0.15731393 -0.08126006 0 164 255 73.9067
-0.7409113 0.23171112 -0.31091848 0 132 255 321.91483
-0.04180562 0.090249434 -0.3185859 255 76 0 204.1787
-0.53440505 -0.2765444 -0.24625947 122 255 134 126.75459
0.13043284 -0.09250496 -0.15264414 0 156 255 71.62036
0.3117951 0.31007728 -0.22233626 216 0 0 489.66534
0.9032143 -0.14958225 0.24451949 0 192 255 80.3924
0.79055893 -0.1580207 -0.2694973 0 216 255 86.70158
-0.18123268 -0.08136793 -0.18335667 0 148 255 69.3576
0.5815254 -0.0024877724 0.3022393 106 255 150 122.39009
0.772654 0.018137151 -0.3380543 234 255 22 154.09882
0.85299057 0.047778785 0.33333734 255 232 0 165.91411
-0.8122954 0.036191992 -0.14476256 86 255 170 117.34277
0.853269 -0.10351349 0.120320186 0 228 255 89.674904
-0.68475497 -0.097944975 0.14261566 0 228 255 89.5883
-0.3926435 -0.08882118 0.054868717 0 56 255 46.267723
-0.19069916 -0.03195807 0.28448433 0 236 255 91.26278
0.47885057 -0.07436445 0.3229499 0 184 255 78.21591
0.6238247 0.16568139 0.05983755 0 60 255 303.96912
0.6021932 0.09980158 0.19361041 228 0 0 230.25566
0.2700741 0.23777224 -0.039110687 162 255 94 392.62195
-0.8526457 -0.09974404 -0.25268468 255 244 0 162.65547
-0.83484787 0.09076344 0.24310593 255 236 0 164.02293
-0.19326924 0.046729337 -0.30667785 254 255 1 159.73845
-0.37184724 0.34333846 -0.33210027 0 0 255 544.8023
0.6541517 -0.22323656 -0.3508833 0 100 255 57.37984
-0.093121625 0.080547355 -0.31595156 255 124 0 192.86673
-0.3019838 -0.2174539 -0.34994093 0 160 255 72.72851
0.46996236 0.09438298 -0.032942485 255 12 0 220.72897
-0.28420737 0.2913371 -0.34360138 255 60 0 464.69064
0.6695508 -0.15731393 -0.033199497 0 124 255 63.81655
-0.8440359 0.2895166 -0.09258985 238 255 18 411.71707
0.8685181 -0.055945516 -0.38757122 134 255 122 129.05263
0.46250913 -0.087600395 -0.059435766 0 148 255 69.993774
0.9541234 -0.12218944 0.19939311 0 236 255 91.942245
0.036560528 -0.094432525 0.056475025 0 156 255 71.65816
-0.5394381 -0.07920478 0.08288263 0 112 255 60.49681
-0.44762188 0.020107549 -0.28301165 154 255 102 134.03304
-0.07954302 -0.08297423 0.18686394 0 164 255 73.05749
-0.7239274 -0.12544487 -0.08215959 114 255 142 124.30624
-0.5688228 -0.08738622 0.08427477 0 144 255 68.48495
-0.4403614 -0.19410895 -0.2918356 0 248 255 94.54607
0.23291495 0.34509468 -0.01762907 0 0 252 543.86676
0.66111237 -0.052068975 -0.2819836 0 244 255 93.255455
-0.74155384 0.3542827 -0.030286733 0 0 224 536.8396
-0.34830958 0.04475894 0.3131836 250 255 6 158.95459
0.9106247 -0.043052264 0.3005259 62 255 194 111.422295
-0.6595467 -0.16958606 -0.29990995 174 255 82 139.19345
-0.624872 -0.08820007 -0.016344026 0 228 255 89.629906
0.8506989 -0.20796598 -0.29453418 0 188 255 79.03579
0.3544799 0.2118144 0.12826604 38 255 218 361.1857
0.7182967 -0.0899563 -0.35628048 10 255 246 98.044754
-0.4707098 -0.087814555 -0.10186357 0 124 255 63.79711
-0.06892 -0.15664998 0.28756842 0 0 244 29.360455
0.8268828 0.058937237 0.32481322 255 184 0 177.2049
0.35595772 -0.15731393 -0.016194105 0 24 255 38.71174
-0.51290196 -0.11762753 0.28681883 0 12 255 35.216175
-0.7607652 0.2038043 0.29118797 0 208 255 340.57397
0.41504824 0.05919424 0.10211543 255 148 0 186.58862
-0.30119136 -0.25120765 -0.36176333 0 208 255 84.238335
0.3655313 -0.15656433 -0.38654318 0 200 255 82.046326
-0.27334875 -0.12672992 -0.2671414 0 36 255 41.65231
-0.18881442 0.3746292 -0.16204637 0 164 255 585.8546
0.011073861 0.28919536 0.13426289 255 84 0 458.42944
-0.5752908 -0.067082554 -0.25429097 2 255 254 96.36622
0.31470785 -0.1364534 0.06844734 0 56 255 46.0641
-0.6171832 -0.07881927 -0.20685151 30 255 226 103.05968
-0.35013002 0.33256552 -0.34752077 0 0 188 527.3047
0.9523671 -0.0990801 -0.056587256 50 255 206 108.207
-0.7512987 0.3418178 -0.29166427 208 0 0 491.63736
-0.8367755 0.22650671 0.19468129 10 255 246 354.6675
0.68055934 -0.22047374 0.3809053 0 120 255 62.43148
0.4602603 -0.0011598957 -0.122852586 162 255 94 136.2799
-0.4715451 -0.15264493 -0.3871429 14 255 242 99.31774
0.30414912 0.22241598 -0.0041361274 86 255 170 373.45306
-0.47443643 -0.032022323 -0.27388784 0 204 255 83.08077
0.77355355 0.024605196 0.33629292 194 255 62 144.09857
0.6689511 0.12974305 0.09759636 0 0 148 261.90158
-0.5121096 -0.0133035425 -0.3165941 0 244 255 93.557434
-0.29958504 -0.08190336 0.25261524 0 136 255 66.21857
0.69268155 0.1581639 -0.017436313 0 0 248 286.82217
0.6166713 -0.14510602 -0.28249764 0 132 255 65.821724
-0.5934313 -0.07322934 0.39947417 0 52 255 45.08804
0.8328796 -0.21623309 -0.36919513 0 184 255 78.74393
-0.71919405 -0.14032994 -0.19359416 166 255 90 137.37262
0.25488916 0.3104628 -0.19946252 204 0 0 492.01047
-0.33408841 0.010169891 0.27752367 118 255 138 125.63952
-0.52234703 -0.25621933 0.3990244 0 60 255 47.799206
-0.47895548 -0.03782643 0.27923706 0 188 255 79.61192
0.63099957 -0.19837102 -0.23653598 0 88 255 54.931873
0.30663353 -0.17168498 -0.36598253 0 192 255 80.152115
0.5179801 -0.04733574 0.29399362 0 200 255 82.29834
-0.7147607 0.32085022 0.31389037 204 0 0 492.8967
0.87108827 -0.15981975 -0.35780108 18 255 238 100.97254
-0.8499257 0.15771413 -0.19757779 255 24 0 217.52036
0.31470785 -0.13019952 0.08247571 0 60 255 47.36744
0.647341 0.023170233 0.25145873 226 255 30 152.61617
-0.5293291 0.15242404 -0.3266174 204 0 0 236.90692
0.0032779363 -0.17858137 0.39925998 0 4 255 33.39217
-0.30725247 -0.23897833 -0.4229313 0 228 255 89.473045
0.18950194 -0.09518213 0.11633656 0 136 255 66.09807
0.023367427 -0.16459583 -0.28626707 0 16 255 36.27133
-0.41260448 -0.21134993 0.28913188 0 0 204 19.409372
0.7415346 -0.15731393 0.059923217 0 136 255 66.27108
0.8684753 0.01246155 0.23239727 138 255 118 130.03224
0.0880693 -0.17783177 0.29045978 0 0 244 29.715698
-0.8229398 0.14475663 -0.010175825 255 60 0 208.16222
0.65843517 -0.20918678 0.24980958 0 104 255 58.076603
-0.27666846 -0.15731393 0.13676871 0 0 212 21.9589
0.85299057 0.047778785 0.33333734 255 232 0 165.91411
-0.16662602 -0.10227128 -0.10655398 0 104 255 58.881603
0.7602105 -0.069095775 -0.35066912 54 255 202 109.27294
-0.52425325 0.0063576004 -0.31117547 58 255 198 110.82342
-0.082455784 0.17583323 0.32265007 0 8 255 290.23212
-0.28097335 -0.12628016 -0.3732216 0 64 255 48.856827
0.2700741 0.23777224 -0.039110687 162 255 94 392.62195
-0.82827276 0.049620684 0.012098236 98 255 158 120.33893
-0.47595707 -0.12443827 0.28913188 0 0 240 28.105114
-0.4372559 -0.08815724 -0.091797404 0 92 255 55.420635
0.41247815 0.21382762 0.006829564 46 255 210 363.49237
0.7911586 -0.15731393 0.06362842 0 148 255 69.70116
0.2839097 -0.035706107 -0.2650425 0 244 255 93.47885
-0.33434543 -0.25686184 -0.37857592 6 255 250 97.585884
-0.41071975 0.059387 -0.37735516 255 236 0 164.26868
-0.3495732 -0.08610117 -0.030222481 0 84 255 53.385296
0.10196917 -0.17853852 -0.36259857 0 128 255 64.04796
-0.8432435 0.2848048 -0.07524178 218 255 38 406.7115
0.31243762 -0.09813774 0.21352857 0 68 255 49.411858
0.87254465 0.03899767 0.32211465 246 255 10 157.32506
-0.40662906 -0.15731393 -0.001651713 0 92 255 55.075172
0.34210068 0.2010843 -0.20590915 0 208 255 340.05276
-0.34316936 -0.05194047 -0.2823263 0 196 255 81.408226
0.8273325 -0.24236228 -0.33546278 0 140 255 67.52835
-0.15923704 -0.039368477 -0.29027215 2 255 254 96.325264
-0.43729872 0.020385973 -0.2603735 158 255 98 135.03572
0.741813 -0.10816106 -0.29222113 0 248 255 94.78787
0.80713594 0.021135582 0.08039822 194 255 62 144.10991
0.46308738 -0.08151785 0.23554562 0 124 255 63.906765
0.59257674 -0.13330506 -0.35345337 0 168 255 74.258575
0.25664538 0.32729682 -0.14322051 0 0 136 514.5391
-0.057782974 0.34511608 0.3088573 0 0 208 532.96954
-0.5578785 0.22496465 0.32594836 62 255 194 367.19064
0.018998286 -0.094432525 0.16641036 0 136 255 66.223885
-0.54682714 0.3718878 -0.25983807 0 124 255 575.3985
-0.10584354 0.048614066 0.3026034 246 255 10 157.81328
-0.6139277 -0.04722865 0.31401885 0 124 255 63.281643
-0.43558532 -0.08533015 -0.03217146 0 68 255 49.141495
0.70435405 -0.25043663 -0.41312215 0 100 255 57.97508
-0.4527192 -0.11055981 -0.28125542 0 188 255 79.86709
0.8784986 -0.18907587 -0.31001893 0 228 255 89.424
-0.4538329 -0.08745046 -0.13191213 0 120 255 62.609917
-0.5266734 0.031308834 0.3843749 214 255 42 149.23946
-0.35276437 -0.15941282 -0.2870381 0 140 255 67.94466
-0.747615 -0.11559288 0.20286271 2 255 254 96.28187
-0.29170343 0.028910087 -0.31479502 198 255 58 145.44875
0.11683282 0.05261911 0.02661921 255 236 0 164.85489
-0.7030454 -0.08132511 0.26672933 0 180 255 77.78785
0.41333485 -0.08228889 0.06193645 0 156 255 71.073555
-0.33805063 0.079712085 -0.326596 255 156 0 184.58218
-0.43864802 -0.055495754 0.27401122 0 148 255 69.67968
-0.5192201 0.04580839 -0.36045685 198 255 58 145.3068
0.73917866 -0.14268586 -0.30877674 0 216 255 86.86546
0.29027066 0.06831804 -0.2845751 255 140 0 188.32076
-0.5480265 -0.12812205 -0.2687263 30 255 226 103.85931
0.21376781 0.34545875 0.04987847 0 0 252 543.07886
0.14073458 0.35507515 0.005930035 0 44 255 555.83887
-0.7222996 0.3544969 -0.07710509 0 0 224 536.0613
0.03846667 -0.088328585 0.15013316 0 152 255 70.38503
0.025809009 0.36404902 0.18527906 0 84 255 565.6587
-0.33164686 -0.097944975 -0.008655191 0 60 255 47.422
-0.6115718 -0.07875501 0.06364984 0 180 255 77.92341
0.75027287 -0.20417513 0.29133785 0 120 255 62.254215
0.377525 -0.063720025 -0.21683201 0 176 255 76.69301
-0.5702792 -0.052647248 0.24355571 0 116 255 61.002026
0.41434148 -0.084109366 0.1485911 0 116 255 61.507473
-0.29384518 0.14218655 -0.32805237 152 0 0 249.05779
0.8140538 -0.07549957 -0.28344 66 255 190 112.114685
-0.28041652 -0.1734626 -0.2348226 0 72 255 50.8523
-0.5439786 -0.27142566 -0.3153733 150 255 106 133.13171
0.46250913 -0.087600395 -0.059435766 0 148 255 69.993774
-0.04493255 -0.09304041 -0.14769673 0 148 255 69.40014
0.4154123 0.18724868 0.17240721 0 160 255 328.10928
-0.7528836 -0.08175345 0.21601297 0 244 255 93.78108
-0.5688656 -0.097944975 0.117278926 0 140 255 67.645905
0.02139703 0.054546673 0.09481211 255 236 0 164.04707
-0.5613267 -0.057016388 0.27364713 0 108 255 59.34232
0.2839097 -0.035706107 -0.2650425 0 244 255 93.47885
-0.747615 -0.11559288 0.20286271 2 255 254 96.28187
-0.15557466 -0.08314558 -0.05827923 0 152 255 70.973206
-0.2616977 0.28463346 -0.3390609 255 92 0 456.1383
-0.36694267 0.37649253 0.13980998 0 108 255 571.8012
-0.31279957 -0.032900434 0.41078255 0 216 255 86.21674
-0.57535505 0.004708464 -0.38324493 10 255 246 98.843666
-0.80362135 -0.050119996 -0.07607706 114 255 142 124.8856
0.26600477 0.19581562 0.26508015 0 176 255 332.96182
0.8100273 -0.16238984 -0.29222113 0 224 255 88.94944
0.38626328 -0.09910152 0.20605391 0 72 255 50.05875
0.68769133 -0.15731393 0.057438806 0 124 255 63.317432
-0.5270589 0.17302755 0.32059398 0 56 255 302.32428
0.23854771 0.004901218 0.038441602 130 255 126 128.29741
0.41515532 0.0481643 -0.24709474 255 200 0 173.56741
-0.6047611 -0.02859554 -0.32890907 18 255 238 100.5626
0.5777774 -0.15731393 0.08232578 0 100 255 57.348778
-0.479855 -0.29123673 0.24940266 0 108 255 59.458763
0.6953159 0.05054163 0.28641188 255 188 0 176.25935
0.69379526 0.01970062 -0.23966292 234 255 22 154.47777
0.4533853 0.11312317 0.10459984 172 0 0 244.15082
-0.5395238 0.0328723 0.292987 158 255 98 135.70294
0.19978227 0.30380198 -0.3098048 232 0 0 485.1755
-0.39630586 -0.03686265 -0.2851534 0 220 255 87.53464
-0.7995521 0.3035878 -0.2852819 255 240 0 419.3564
0.63434064 -0.074707136 0.3388416 0 232 255 90.63486
-0.4882292 0.23766516 0.32740474 110 255 146 379.8695
-0.21774928 -0.090470314 -0.018614268 0 124 255 63.375515
-0.5376391 -0.25900358 0.36295757 0 80 255 52.51292
-0.6435908 0.10110804 -0.31271756 255 156 0 184.95161
0.87108827 -0.15981975 -0.35780108 18 255 238 100.97254
-0.035209067 -0.107175864 0.27910855 0 80 255 52.00218
0.80735016 0.009120441 0.024691649 150 255 106 133.0488
-0.6476172 -0.08670086 0.10070188 0 204 255 83.68269
0.07521888 -0.09811632 0.2265289 0 100 255 57.367626
-0.14863545 0.37422228 0.045552164 0 124 255 575.0885
-0.7409113 0.23171112 -0.31091848 0 132 255 321.91483
-0.5293291 0.15242404 -0.3266174 204 0 0 236.90692
0.9474197 -0.11040989 0.17384218 0 252 255 95.568985
0.023410263 0.22918387 0.18251622 82 255 174 372.52478
-0.3709477 -0.26114532 -0.35036924 22 255 234 101.74351
-0.47895548 -0.03782643 0.27923706 0 188 255 79.61192
-0.60658157 -0.08802874 0.026319366 0 196 255 81.995766
-0.8439074 0.23492374 0.024199048 0 220 255 343.2437
0.10160507 -0.09809489 -0.23771393 0 112 255 60.704502
-0.40949896 -0.042902347 -0.34696388 0 176 255 76.95322
0.81381816 0.011454932 -0.22263612 202 255 54 146.05733
-0.64127773 0.32252073 0.3305959 208 0 0 491.156
-0.11254718 0.22881977 -0.33706906 94 255 162 375.5946
0.22490484 0.33385053 0.2508162 0 0 156 519.08527
0.81336844 0.013104072 0.2616748 154 255 102 134.73985
-0.3019838 -0.2174539 -0.34994093 0 160 255 72.72851
-0.36805636 -0.09584608 -0.2814482 0 100 255 57.50509
-0.065793075 -0.0639342 0.2753391 0 164 255 73.04355
0.41530526 0.16107666 0.152896 0 24 255 294.98056
-0.7175449 -0.030137591 0.26970634 0 152 255 70.05103
-0.7187015 0.02488362 -0.28776628 66 255 190 112.10754
0.75027287 -0.20417513 0.29133785 0 120 255 62.254215
-0.41149077 -0.087814555 0.115522705 0 52 255 45.785744
-0.13398597 -0.08297423 -0.060399547 0 160 255 72.081215
-0.22143309 -0.009405581 0.29159486 38 255 218 105.82126
-0.83754647 0.30842814 0.09155667 255 48 0 467.1142
-0.3233369 -0.0067712464 0.40043795 46 255 210 107.07428
-0.4882292 0.23766516 0.32740474 110 255 146 379.8695
0.6552012 0.06319929 -0.14525516 255 152 0 185.32594
-0.76226443 0.2387146 -0.3051786 0 164 255 329.6803
0.6213403 -0.040075254 -0.32462558 0 236 255 91.60244
-0.12747508 0.3739867 -0.0023799033 0 132 255 577.3706
0.551584 0.10648379 -0.006449203 200 0 0 237.07172
-0.5788889 -0.19779274 -0.232124 106 255 150 122.099724
0.23479967 0.021799522 0.2773952 162 255 94 136.9749
-0.50859714 0.030559223 0.27752367 150 255 106 133.71735
0.8642132 -0.21030048 0.35269862 0 132 255 65.612755
0.44205552 0.020621566 0.14497156 210 255 46 148.25342
-0.24904007 -0.07924761 0.37522972 0 116 255 61.604324
-0.2216044 -0.14639106 0.34618774 0 0 244 29.691782
0.92266124 -0.07549957 0.32509163 30 255 226 103.97695
0.017306313 -0.0873648 -0.11387871 0 176 255 76.21828
-0.22143309 -0.009405581 0.29159486 38 255 218 105.82126
0.87254465 0.03899767 0.32211465 246 255 10 157.32506
-0.10614339 -0.15305187 -0.297961 0 0 248 30.555681
-0.27334875 -0.12672992 -0.2671414 0 36 255 41.65231
-0.5252384 0.0030807434 0.41356677 94 255 162 119.24035
-0.28257966 -0.1949014 -0.40789634 0 132 255 65.56016
0.32942158 -0.16403897 -0.36589688 0 188 255 79.93266
0.08637732 -0.09809489 0.20511153 0 108 255 59.2174
-0.4372559 -0.08815724 -0.091797404 0 92 255 55.420635
0.49806193 0.09673888 -0.04193778 255 0 0 223.75452
-0.15373278 0.33391482 0.33235213 0 0 128 512.68225
0.7859542 -0.2560694 -0.24559553 0 80 255 52.85803
-0.35509887 -0.29080838 0.39870313 0 96 255 56.979023
-0.21438676 -0.103813335 0.035528835 0 96 255 56.60478
-0.25445864 -0.100043885 -0.14519092 0 76 255 51.625664
0.101048216 -0.09115567 0.18611434 0 128 255 64.02683
-0.81465125 -0.0027876159 0.0017750658 62 255 194 111.56824
-0.50474197 0.019400777 0.3123483 122 255 134 126.230965
-0.14148204 -0.09815915 0.2579482 0 112 255 60.43025
0.23974708 0.3025812 0.2934582 255 24 0 473.8759
0.93662536 -0.01242543 -0.35011226 194 255 62 144.40158
-0.5878414 -0.10186436 0.34704444 0 8 255 34.04336
0.35762826 0.16760896 -0.26227966 0 20 255 293.4343
-0.603112 -0.1696289 0.36963975 0 4 255 33.76777
0.80711454 0.032679543 0.08161902 238 255 18 155.31955
0.3544799 0.2118144 0.12826604 38 255 218 361.1857
0.017156392 -0.09811632 -0.23306637 0 116 255 61.094772
0.84251744 -0.028359953 0.1860715 46 255 210 107.37444
0.26713988 0.3244055 -0.24478167 132 0 0 510.92325
0.79811925 -0.12625875 0.36972544 0 208 255 84.82022
-0.607631 -0.07877643 -0.17821649 10 255 246 98.54604
0.6585208 0.13775314 -0.13465355 0 0 156 263.52747
-0.6508727 0.02034314 -0.29828224 54 255 202 109.0542
0.6752478 0.0075355554 0.35057834 126 255 130 127.67105
0.28658685 0.1952802 0.24608296 0 180 255 333.5938
-0.125419 -0.06740381 0.27576745 0 160 255 72.2358
-0.093121625 0.080547355 -0.31595156 255 124 0 192.86673
-0.7494354 0.08401697 0.28442007 255 196 0 174.38972
0.78096396 -0.13184868 -0.3338779 2 255 254 96.8693
0.7069027 0.02790347 0.39238504 194 255 62 144.4032
0.60140073 -0.117456205 -0.28873008 0 148 255 69.65934
-0.6577262 -0.08466621 0.23434624 0 160 255 72.27668
0.6482405 -0.18102294 0.27812338 0 128 255 64.35929
-0.3566623 -0.15731393 -0.0067490465 0 48 255 44.520927
0.52050734 0.12374619 0.027647244 0 0 128 256.3302
-0.22927183 -0.11659951 -0.3516329 0 8 255 34.038628
-0.39737675 -0.13739577 -0.39984336 0 192 255 80.91518
-0.081727594 0.25514174 0.32566988 198 255 58 401.87933
0.051595517 -0.17870986 -0.40761787 0 156 255 71.12008
-0.37424597 0.008178076 0.27452525 98 255 158 120.99493
0.1114999 -0.095888905 0.03011024 0 160 255 72.70964
0.14097019 -0.092976145 -0.08603614 0 168 255 74.80074
0.80720025 0.014367695 0.06731221 166 255 90 137.67558
0.06765854 0.3600654 0.21967536 0 56 255 558.9378
0.8580879 0.0033591683 0.37495127 110 255 146 123.36711
-0.7776421 0.34745058 -0.057915136 0 0 144 516.8098
0.2185439 -0.12859324 -0.2582746 0 44 255 43.190746
-0.6149772 -0.086272515 -0.15058808 14 255 242 99.02531
-0.38161358 0.0016243613 0.30536625 82 255 174 116.070175
-0.16035075 0.3743294 0.20712477 0 116 255 573.52545
0.23818362 0.28159216 -0.3024372 255 108 0 452.75754
0.5920414 -0.09730246 -0.34914845 0 176 255 76.981064
-0.5688656 -0.097944975 0.117278926 0 140 255 67.645905
-0.22228977 0.37499332 -0.18052956 0 172 255 587.3219
0.10584571 0.0055865753 0.054311868 130 255 126 128.10338
-0.46137184 -0.15731393 -0.08126006 0 164 255 73.9067
0.6799811 -0.097944975 0.08234721 0 180 255 77.06523
0.39662927 -0.09818056 0.1642472 0 76 255 51.632996
-0.31059358 -0.015595201 0.4054282 14 255 242 99.91855
0.44721714 0.00040357307 -0.123302355 166 255 90 137.77054
-0.20958927 -0.081196584 -0.10685382 0 144 255 68.24827
-0.7335009 -0.087536134 0.01068469 54 255 202 109.44437
-0.3233369 -0.0067712464 0.40043795 46 255 210 107.07428
-0.3536425 -0.29023013 0.35128507 0 28 255 39.55564
-0.084983036 0.06707584 -0.31314588 255 172 0 180.44696
-0.50474197 0.019400777 0.3123483 122 255 134 126.230965
0.9523671 -0.10841807 -0.0146092195 30 255 226 103.92432
-0.17210887 0.37445787 0.2535148 0 112 255 572.864
0.617271 0.20958698 -0.0006236794 26 255 230 358.25522
-0.2798168 0.24349068 -0.3367264 150 255 106 389.86847
-0.82186896 0.021949442 0.05315533 34 255 222 104.09064
0.6495898 0.16880833 0.021864554 0 68 255 305.46295
0.10261168 -0.16453157 0.26893532 0 0 244 29.64387
-0.27788925 -0.02958074 -0.29125735 22 255 234 101.416046
0.74536824 -0.26165932 -0.24452466 0 72 255 50.373444
-0.16643327 0.3743936 -0.21074946 0 172 255 587.9652
0.4584398 -0.08764322 0.3023464 0 156 255 71.39257
0.1271774 0.17536204 0.3103779 0 40 255 298.5153
-0.41018432 -0.29819733 -0.42802864 210 255 46 148.74821
0.86065793 -0.20408945 -0.24527426 0 184 255 78.56937
0.81636685 -0.09231222 0.29133785 0 236 255 91.711266
0.58341014 -0.04515117 -0.2209013 6 255 250 97.97086
-0.52001256 -0.26572862 0.40523544 0 76 255 51.048836
0.12364353 -0.09393993 -0.2549335 0 112 255 60.042305
-0.48580906 -0.08207471 0.24340579 0 56 255 46.90016
-0.3548633 0.30303097 -0.33248577 255 4 0 478.4137
-0.4715451 -0.15264493 -0.3871429 14 255 242 99.31774
0.5145319 0.14661993 -0.12672913 0 0 188 271.5914
0.048618503 -0.17793885 0.3090072 0 0 240 28.527973
0.18918069 0.00318783 -0.28881577 122 255 134 126.71035
-0.1841026 0.15503696 0.31900913 0 0 164 265.30148
-0.33434543 -0.25686184 -0.37857592 6 255 250 97.585884
0.1367938 -0.109060585 -0.2672913 0 64 255 48.217308
0.42669928 -0.098351896 0.17135778 0 72 255 50.464886
-0.4554392 -0.025382938 0.28913188 0 232 255 90.91659
-0.8166859 0.073972225 -0.11409289 190 255 66 143.26259
-0.6925509 0.26722112 0.3149184 255 212 0 426.2103
-0.8066412 0.012804228 0.08757304 14 255 242 99.52665
0.74873084 -0.07817675 -0.36187038 38 255 218 105.973274
-0.48732972 -0.23364542 0.26848555 0 24 255 38.17862
0.6518386 -0.097944975 0.042403813 0 164 255 73.59801
-0.40652198 0.14323598 -0.3289305 196 0 0 238.13062
0.5449445 0.10704064 0.07752829 192 0 0 239.56294
-0.3236796 -0.15731393 -0.03215004 0 28 255 39.457584
0.70437545 0.02685402 0.29647806 218 255 38 150.7342
-0.60780233 0.36415613 0.27206224 0 0 252 543.2324
0.026066016 0.21288526 0.0015394747 14 255 242 355.33063
-0.5882697 -0.0033230511 -0.3193355 0 244 255 93.36515
0.102054834 -0.14960366 0.26690063 0 0 248 30.256779
0.710308 -0.15731393 0.09472644 0 132 255 65.55677
0.024609637 0.3588232 -0.2827975 0 88 255 566.1962
-0.710413 0.3582235 -0.18425618 0 0 216 534.4505
0.53190136 0.12674463 -0.00036667098 0 0 140 259.02982
-0.7776421 0.34745058 -0.057915136 0 0 144 516.8098
-0.29528016 -0.097944975 -0.026196016 0 72 255 50.969612
0.58041173 -0.01600213 0.37542245 30 255 226 103.85984
-0.5848858 -0.058258597 -0.36835986 34 255 222 104.466324
0.78824586 -0.00088147074 -0.2121416 162 255 94 136.34526
0.21241853 0.34226757 -0.18436328 0 0 224 536.2612
-0.6476172 -0.12606598 0.3476013 0 52 255 45.487274
-0.30753088 -0.020992378 -0.40607584 18 255 238 100.25389
-0.6101797 -0.049156215 -0.30044538 30 255 226 103.630035
-0.4513699 -0.15187392 0.34113324 0 0 176 12.04227
-0.45698127 -0.12261779 -0.24985759 0 196 255 81.1743
-0.8440359 0.2895166 -0.09258985 238 255 18 411.71707
0.72193766 -0.097944975 0.0434961 0 188 255 79.34098
0.61326593 -0.14092962 -0.33109364 0 152 255 70.134186
-0.37865797 -0.29449216 0.4147019 0 116 255 61.41657
-0.4095204 0.27094775 -0.33826843 255 244 0 418.19553
0.08914016 0.35987264 0.07018214 0 68 255 561.3984
-0.5818659 0.035249628 0.30821475 162 255 94 136.53418
-0.60677433 -0.029366568 0.3656133 0 192 255 80.501816
-0.5621191 -0.25369206 -0.3772909 170 255 86 138.79497
-0.3732608 -0.182822 0.2707986 0 0 188 15.4955435
-0.10712859 -0.17793885 0.35736763 0 0 216 22.56799
-0.6826561 -0.087536134 -0.03958187 30 255 226 103.496666
-0.05771872 -0.08395943 0.08384641 0 168 255 74.7547
0.55614585 0.1225254 0.034650724 128 0 0 255.67918
-0.40011817 -0.16810827 0.2761101 0 0 200 18.688866
0.13867854 0.33941904 -0.2977468 0 0 224 536.1269
-0.5447282 0.10087245 0.31502548 255 16 0 219.9551
0.8648772 -0.20728064 -0.36998758 0 212 255 85.49831
-0.4095204 0.27094775 -0.33826843 255 244 0 418.19553
-0.5032856 -0.15425123 0.18506488 0 96 255 56.368584
0.5463367 -0.047592744 -0.40144968 0 228 255 89.64899
-0.23029986 0.07459333 -0.3134029 255 152 0 185.02377
0.44160578 -0.108503744 0.3529556 0 160 255 72.973755
-0.7187015 0.02488362 -0.28776628 66 255 190 112.10754
-0.3786151 -0.08899251 0.048700515 0 60 255 47.618095
0.04562007 0.19076112 0.19472411 0 116 255 317.72296
-0.15870161 -0.08162494 -0.2089504 0 148 255 69.96017
0.14073458 0.35507515 0.005930035 0 44 255 555.83887
-0.58422184 0.1618691 -0.32543945 172 0 0 244.4867
-0.28197998 -0.22576381 -0.34636423 0 148 255 69.56615
0.6421366 -0.054724727 0.29493597 0 240 255 92.37328
-0.22228977 0.37499332 -0.18052956 0 172 255 587.3219
-0.4162883 -0.18545635 0.2632811 0 0 228 25.377457
-0.3233369 -0.0067712464 0.40043795 46 255 210 107.07428
0.77355355 0.024605196 0.33629292 194 255 62 144.09857
0.4887454 0.090827696 -0.018250173 255 20 0 218.15611
-0.3226944 -0.272368 -0.3870358 42 255 214 106.38601
-0.35629824 0.016466597 0.38081965 134 255 122 129.2832
-0.5032856 -0.15425123 0.18506488 0 96 255 56.368584
0.9145869 -0.12304613 -0.13156946 30 255 226 103.408195
-0.08684634 -0.07104476 0.27356148 0 148 255 69.910904
0.41496256 0.14848325 -0.039881714 0 0 216 278.89413
-0.49107772 0.011776195 0.38728765 126 255 130 127.77997
0.042171877 0.36246416 0.20243438 0 76 255 563.1054
0.72193766 -0.097944975 0.0434961 0 188 255 79.34098
0.89087784 -0.19479431 0.40827668 0 152 255 70.30316
0.8702529 -0.18050893 -0.4011927 2 255 254 96.95829
0.50337344 -0.073464915 0.22106747 0 140 255 67.165085
0.35238102 -0.15731393 -0.16547315 0 16 255 36.85306
-0.08669642 0.37244463 0.06521331 0 120 255 574.0426
0.9141157 -0.12583038 0.1109608 0 232 255 90.648865
-0.65920407 0.3639848 -0.25698957 0 4 255 545.7945
-0.31059358 -0.015595201 0.4054282 14 255 242 99.91855
-0.15118411 0.3742437 0.06720512 0 120 255 574.01746
-0.5554583 0.3711168 0.24599728 0 44 255 555.629
-0.5266734 0.031308834 0.3843749 214 255 42 149.23946
0.2258258 -0.16324653 0.25677022 0 20 255 37.808975
-0.2949375 0.37576434 0.20892383 0 104 255 570.1701
-0.2726634 -0.08096101 0.20440476 0 140 255 67.404305
-0.20537004 0.16962218 -0.329316 0 0 252 287.73038
-0.08545422 -0.091969535 -0.07815454 0 148 255 69.29239
-0.455375 -0.112294614 -0.33308545 0 208 255 84.5262
-0.79190606 -0.07164444 -0.051918272 114 255 142 124.21221
0.8277609 -0.24146277 0.23507443 0 108 255 59.164955
-0.66355175 -0.15731393 -0.007991253 62 255 194 111.15064
0.70109856 0.006293349 -0.2248421 190 255 66 143.39719
-0.35445634 -0.097944975 0.034907736 0 52 255 45.11903
-0.3105079 -0.05855844 0.26274568 0 184 255 78.51975
-0.83975244 0.25021574 -0.18530564 0 216 255 342.60315
-0.40812826 -0.08858559 -0.07314288 0 60 255 47.26253
-0.46792555 -0.084173605 -0.2605877 0 176 255 76.37279
0.76629305 -0.2449966 0.34346774 0 104 255 58.611603
-0.23250584 -0.11231603 0.3632788 0 52 255 45.91954
0.34109408 -0.15731393 -0.17894468 0 24 255 38.252098
0.70435405 -0.25043663 -0.41312215 0 100 255 57.97508
-0.43916205 0.0002750679 -0.40337726 54 255 202 109.51802
-0.3060531 -0.20927246 0.25959733 0 0 156 7.25311
-0.6476172 -0.08670086 0.10070188 0 204 255 83.68269
0.0281435 -0.09010622 -0.030972088 0 168 255 74.91663
-0.38842428 -0.097944975 -0.10096404 0 60 255 47.145164
0.40108413 -0.097944975 -0.0010306094 0 136 255 66.83029
-0.76226443 0.2387146 -0.3051786 0 164 255 329.6803
0.1371579 0.1566861 -0.3174722 0 0 204 275.5471
-0.40662906 -0.15731393 -0.001651713 0 92 255 55.075172
0.5145319 0.14661993 -0.12672913 0 0 188 271.5914
-0.73418623 -0.08682936 -0.06731736 82 255 174 116.48569
0.5865799 0.12111185 0.15717947 144 0 0 251.2371
-0.75414723 -0.08672227 0.059045106 54 255 202 109.19792
0.64044464 -0.1619829 0.40290093 0 164 255 73.6431
-0.73517144 0.1629828 -0.30781296 212 0 0 234.21703
0.26713988 0.3244055 -0.24478167 132 0 0 510.92325
0.81713784 -0.11514313 -0.12842111 0 240 255 92.54249
-0.04617476 0.14186528 0.3165033 152 0 0 249.39868
-0.2211118 0.3749719 0.1621483 0 112 255 572.12695
-0.4403614 -0.15911299 0.41540867 0 0 188 15.323056
-0.4715451 -0.15264493 -0.3871429 14 255 242 99.31774
-0.40849236 -0.12203952 -0.3553381 0 180 255 77.28784
-0.28945464 -0.0007743821 -0.3336637 102 255 154 121.56407
0.9020363 -0.101050496 0.2574556 0 248 255 94.100914
0.7813066 -0.15731393 0.10374315 0 148 255 69.65361
0.8378485 -0.24908733 0.33991244 0 104 255 58.772385
-0.7151891 0.29392856 -0.32336196 254 255 1 415.01227
-0.52266836 -0.26153085 0.3759793 0 72 255 50.53882
0.29275504 0.21918197 -0.16044007 58 255 198 366.98953
-0.18628716 -0.1757971 0.3472158 0 0 200 18.48584
0.45702624 -0.15731393 -0.10479775 0 28 255 39.509636
-0.020623844 -0.08571566 -0.21771012 0 148 255 69.54587
0.11653297 -0.09809489 0.18662836 0 108 255 59.861374
-0.43023098 -0.17376246 -0.40286323 0 252 255 95.18198
-0.21631433 0.33215857 -0.34615004 0 0 228 537.09436
0.31314442 0.31720927 0.11892806 164 0 0 502.35458
-0.14150347 0.31571004 -0.3444795 128 0 0 511.81107
-0.33106858 -0.028295698 -0.34417966 10 255 246 98.4328
-0.06877008 0.021949442 -0.30080947 174 255 82 139.87129
-0.14148204 -0.09815915 0.2579482 0 112 255 60.43025
0.82750386 -0.13763136 0.2721265 0 188 255 79.71351
-0.39986116 -0.044123136 0.28913188 0 196 255 81.31572
0.710308 -0.15731393 0.09472644 0 132 255 65.55677
0.0949871 0.13276291 0.31299084 184 0 0 241.07974
0.76368016 -0.11777747 0.37047505 0 212 255 85.84552
0.0136653595 0.31962943 -0.33257145 0 0 128 512.4931
-0.2134444 -0.15476526 0.18506488 0 4 255 33.03878
-0.31048647 -0.15731393 -0.04031006 0 20 255 37.259457
-0.6263712 -0.07781264 -0.39007708 94 255 162 119.143906
0.31470785 -0.11574282 0.020579513 0 108 255 59.41599
0.13182497 0.35308334 0.16274798 0 28 255 551.3192
0.39384505 -0.09982971 -0.22265753 0 72 255 50.404957
-0.3990259 -0.14077972 -0.37399262 0 192 255 80.19178
0.4602603 -0.0011598957 -0.122852586 162 255 94 136.2799
0.7152341 -0.0308872 0.10558504 0 248 255 94.88186
0.6053201 0.20005625 -0.046221253 0 216 255 342.38797
0.28656545 0.3288175 0.06814749 0 0 160 520.04266
-0.2134444 -0.15476526 0.18506488 0 4 255 33.03878
-0.43483573 -0.28648207 0.29611394 0 56 255 46.721077
-0.0745956 -0.098223396 -0.21432617 0 120 255 62.649998
0.41380602 0.05452526 -0.010796928 255 184 0 177.28505
